VERSION .7
FIELDS x y z
SIZE 8 8 8
TYPE F F F
COUNT 1 1 1
WIDTH 863
HEIGHT 1
VIEWPOINT 0 0 0 1 0 0 0
POINTS 863
DATA ascii
114.64228635931306 126.5945930998042 444.3275925952732
141.33488564529006 127.22800773915986 443.65426415232236
66.32730272723886 126.66784428289563 444.78591314382317
41.185156681842486 126.74612464012449 446.4401068414788
86.0070337398006 127.05097826239619 445.7794707362571
126.77465700931938 127.2141471545665 445.63625202303865
196.76478791423747 127.49341539912552 446.3088545310413
76.20440876013744 127.41703743154731 447.2566408352979
166.8612740785484 127.36787487167427 446.5549123340193
208.48099863693236 127.30390968303709 447.06246882441053
8.19496461737778 127.39043516391818 448.3441329969309
107.50867752441867 126.78926005656376 448.0663335458994
109.66500134449164 126.95395872480982 448.1664882995268
122.94096145550004 127.05131801778886 448.3437001305848
127.67413773888582 127.17730510946205 448.0271932023612
23.625922831438366 126.82271622343528 449.3421712843938
157.32728819601468 126.59084316292734 449.42068038711835
66.24597081128967 127.01950252831932 449.9134934904091
174.47410708926907 127.39160510320181 450.34695741299095
180.0560857036651 126.70261196647391 449.95091408467044
18.444447252915765 127.06647324785287 450.79918979305614
24.744477271947023 126.79315764719436 450.9062561379753
33.29314762715314 126.81196584263066 450.89627295731106
61.465650148115685 127.3486397258071 450.6697626770769
151.95163126372424 127.41653428551017 451.3710752966925
174.3572829138837 126.8125840700784 451.0626144241756
122.2363832538976 126.8576069964792 451.8936775913818
216.15558679213288 126.73585033061542 453.06302200005115
19.37067785738637 126.54514316831718 453.7046143777284
28.794896564615687 127.20814842682334 454.30919591216224
66.6610778556691 126.927177404721 454.22549574586566
157.46719628559222 126.52509730399703 455.0532929189987
27.45162571467274 127.4007662038925 455.66562948328715
188.98034424342418 126.50371714093423 456.18842722778083
200.2334961324341 126.60965737137572 456.42961457700363
24.31472424869939 127.00620992123203 456.69449564476366
31.75879807657009 126.80740581124677 456.98657251002135
52.85251673520383 127.46715780572852 456.5101812151745
109.059497630115 127.47394365588137 457.32524930186827
77.9540807403995 127.15726616806326 458.3155444693641
8.337909327956076 127.49322298961334 458.531874490897
94.65843090098619 127.28209902571493 459.486110827682
30.90010851858777 127.48348905440076 459.7197464732268
69.41477818584674 127.46180089314376 460.3163311547519
114.92386815162467 126.5118548021727 459.8099122026661
142.01698376975563 127.22495598302366 459.76924851611443
43.0966271473604 126.65708970288601 460.6703481170365
200.58899748040093 126.75819184070025 460.55212458174634
126.53051224425995 126.77157916218604 462.2533695962182
189.48003046672338 126.59637202833127 462.14871879044387
47.54797728700247 127.27148328734337 464.5176353841838
182.61512059017377 127.02363531348621 466.2071050439493
210.76996536266645 126.79772851632829 465.8711400251258
3.173431235586683 127.3985193455473 467.46861006415503
33.726846913792386 127.37041680637986 466.91214181159984
12.011678859434932 126.73362749706466 467.78032060915103
30.007711427120963 127.23598420971047 467.96190541954957
44.96829280287806 126.86155239857355 468.2311417851666
46.39340300101385 127.16274014851261 467.88709772211956
77.33022634488542 126.83071710494573 467.6182878402137
67.97881598041587 126.53551987407351 468.5047082173133
144.3777885992217 127.36312364886331 469.3184071815062
187.05746663112893 126.82240428594658 469.9929355547174
195.23984900218295 127.4606281496663 470.478480870314
203.0074040880342 126.5673537822416 470.3736939283172
111.694014932862 127.3094496657753 470.6439862230053
190.87386560271042 126.78366776721066 470.9841738181633
209.460526463739 126.69287910814919 470.5317141987008
171.4555990723552 127.31345758000339 472.13213268634723
159.9786800778498 127.168678328347 473.0841460947808
203.54410115088814 127.07980246335477 472.77309539493945
181.2934730606481 127.46469205348146 475.41155425978553
166.45283673749105 127.14569975370102 476.3499058122293
124.75749569207495 127.13280205968057 476.6032563652097
32.59079722036226 127.00374438479072 477.54432325105955
95.55689143368194 126.59279327207065 477.57603187857546
57.023101262077574 126.94712748342249 478.85797226405657
126.52970307353932 126.7418326227543 479.3364210895878
149.33878240923667 126.54228525998153 479.5034975039378
25.90213718362593 127.25093424666814 481.11721521951813
44.927917241087606 127.15219547766242 480.51905878762983
154.82156700734538 127.31306365818136 481.7732722171341
161.22653080682844 127.18454056812335 481.78600743649764
86.32490941199923 126.87896254847772 483.42985301561964
119.07313392967538 126.89383348489505 483.21482336369854
209.19315878061568 127.02938056121315 482.54572310351995
166.0956154440472 127.49317127106913 483.7290498147103
7.200830524917998 126.97393738886556 485.19980018481516
170.28136530293082 126.83123705394071 485.08319651915883
90.18247103820075 127.43789956978873 486.07286870520005
101.20013486012061 127.29276940289009 485.90981471067704
157.66505465555318 127.2604283489342 485.9545697443473
176.18422699121314 126.98725837761334 486.3016838764532
25.832966948608043 127.06556052017893 487.0449220893837
156.896089098177 127.43761450930236 488.1278051470118
80.67952185701405 127.20092816521674 489.449340688685
113.47727462671405 126.88808047414874 489.4836613478912
207.66786646713044 126.50656067590036 490.33127736165335
-0.17558196695722605 126.92325037655246 490.71943432776993
74.74462515569753 126.83430608746838 491.1933487157583
141.75029866155933 126.75175530053583 490.7016637540695
71.57638963911083 126.93195985005805 491.95785775715547
80.92892128653476 127.44247307377708 492.37600125141
211.80810341205895 127.12493865255914 492.4042852287179
181.25656370452757 127.42685937509867 493.34988706610295
150.8497534668851 126.7235464365159 496.3067068408098
165.93433835642068 126.88752601342703 495.6723406354871
217.17820628386715 127.04337359911545 496.02187668011203
16.70552161992151 126.66621244703761 498.69274506388507
25.033492655364046 127.41144846782348 500.510873338662
61.40609619012904 126.58818623656725 500.73118542683324
43.616277139152785 126.59664420488212 504.1529032389983
107.43200943038777 127.27801473039219 508.696410927963
143.81697317809412 127.36667166589027 517.8558869045974
158.15196770372103 126.98578983693208 525.6886398008673
59.16991623792685 127.04872032551123 561.3983362490852
134.55536779650373 127.19181448886476 704.9235328987928
56.82825620335303 126.91814656872293 708.2045114263489
92.44738500725585 126.86247772453953 720.7224343047938
96.09810202664717 126.78163137492648 721.0537334303973
57.33445317254984 127.05778775055788 726.0452989590004
115.87765268936526 126.50124120220318 727.5270454524933
148.6116467081217 126.9083772273762 727.5975259062897
89.05373406293333 127.2198581691597 731.3435287272723
59.71032224524912 126.88760645219881 731.5515422763561
87.13790006403893 126.74925474530919 734.4184609091488
99.59841378757713 126.5137394036059 734.321703634742
84.46024154634046 127.20871378603309 735.637241308197
74.73749747797181 126.98239762537423 736.6492913793052
89.87424090320398 126.64756794912446 737.2286132203392
121.22129219059616 126.92802191510603 737.0516444314388
154.60001885851892 126.80441417139481 743.0402581349199
151.04171101330965 126.92583285141792 747.842034869704
65.91911639280606 127.39667823838165 749.3906779728279
145.70614426800992 127.4701313373728 755.5938037826073
46.68664663572566 127.28650508357437 778.9189019322181
148.8015985028866 126.62587623238215 786.0925381449333
169.36361950230202 127.38588090531988 789.9165593938213
39.28380556165891 126.61046931850942 791.4660881624133
217.5503311803164 126.66190369888949 791.0092900209165
151.77621104356123 127.204649189796 793.7097093944277
121.56761414102532 127.25835792931696 812.1608103989148
103.33011353306355 128.28644076819782 385.2910152891945
33.967725217206464 128.1138304355522 424.3185068712916
41.206067385050424 128.2676203413414 427.85083693719645
156.6429357229962 128.1645366616794 427.6008009778057
194.69930818245746 127.77077760045196 429.49824622186077
203.49409477131147 127.63774512103089 428.61120500362097
26.258456352807215 128.05518387918931 430.3105747731152
153.99917731393228 127.51482643304901 430.9422895386183
159.36131102744355 128.04906632403845 430.8653989192391
182.13226529056885 127.88571401520922 431.4945248984585
192.71794866983942 127.97069824009176 431.17092008636416
23.513008847886645 128.09397209573382 432.09480364809156
140.31645314638223 127.71911260590116 431.7388139372292
143.26929800874862 128.13488023967477 432.2277191155526
207.0084748761003 128.02043524913364 432.48272465777796
150.83944213894827 127.5654716398943 433.38031911855114
199.1179502059071 128.43616880268522 432.9305106449384
154.97770792507015 128.02539066322925 433.82914746428645
186.10255923762367 128.20523848483305 434.6806705947176
203.26408156588673 128.34704832238856 434.5907384321781
28.211760765923824 128.1472510798702 435.91383162420016
58.94641742318853 127.74441813270403 436.1652343343536
110.46882530213792 127.73848772827279 435.6266384187577
129.92558263082373 127.74174602485631 435.67000742442633
139.12135123428789 128.37568958183604 435.8195642252453
11.586811620780724 128.35094484014755 438.33501712540317
47.51930177338107 127.60503032851456 438.0891648062706
201.49583521857255 128.31752112362895 440.16102681770155
188.61876852390668 128.4978228299532 440.8461436448243
94.81644695357154 128.30716349622463 441.52567083108187
160.72759579499856 128.4227528856012 443.6252535083185
186.10712604020404 128.1174916925481 443.9393354188822
202.384420555095 127.7472197878112 444.0805815106258
6.552570217793731 127.83975532399248 444.6925603749386
26.869748926863828 128.41327594802902 445.3563774635805
59.734781000579176 128.04761379347215 444.71199982896445
80.1065872848982 128.18993598412328 445.03677846051494
211.6274872787832 128.17825850977752 444.9726390737714
152.1752020743662 127.96237831173161 446.05050501960994
36.117434706357095 127.80795107518126 446.60842850495675
87.43227808503707 127.52481944839056 447.2441372818542
132.17824051896386 127.82455381606302 447.0625247887663
196.1748246117901 127.77427563793769 446.9369794825808
30.61009842824055 127.58786602771491 448.45719849256204
125.47281360337583 128.02148568508017 448.27367676649806
138.70858719367206 127.64550392944383 448.4508871679327
150.5241880492568 127.84659747868916 448.34265258671724
1.8344528358580248 127.7813795213395 448.5733222142674
19.84881388657644 128.2559303854462 448.79070868632954
154.31134588376477 127.51614092172329 448.71513275027155
112.72512474256052 127.70700691290013 450.2645801539346
140.71052458421394 127.50673009033106 449.91298081691866
144.16069094805718 127.6057852613484 449.9736601495129
181.59445423372603 127.91722673011476 449.786366436683
27.575110831971138 128.16476644329038 450.79285950995023
129.1498542183036 128.25833112853059 450.71059479628326
205.2683618944564 127.9581761090902 450.89919060942077
11.180937732438574 128.4658246145427 452.88055294823994
8.173665359846876 127.69448986052937 453.7474240599432
90.55234692427987 128.44281939996338 454.21564457389667
177.1161175833322 127.69268211007778 453.9483395090034
69.02747901446983 128.18331699493356 454.69039912005826
14.042745565725353 128.38801204044668 456.19316518204187
14.53543386272312 128.21574055391775 455.59432657366096
30.54215268217791 128.25793139146762 455.862931469006
47.01415860099118 128.2698595997894 455.8906028268418
96.66048834575905 127.9661910550303 455.71545142116827
104.89594941646854 128.3889097704842 456.19100398872007
196.92388413173566 128.2050282449809 456.284327969709
19.27695855696496 128.47782310337163 457.209825299729
50.841320149798996 127.6749130116125 456.90610070125365
82.08459855186535 127.68414336571769 457.29019004898805
96.83346697873979 128.12064022486516 457.1383377381562
103.37218578908151 128.4418471049369 457.42078848440434
22.34035805349689 127.95402154778577 458.1243231116284
114.21584527597143 127.67083605524384 457.9682182969405
88.75881777924738 127.60965981606104 459.1620350076159
155.6797498001758 127.68814115624143 459.66530633846025
82.07486026847236 127.53744249921667 461.4032974525316
104.6328174991079 127.62087571490746 461.0116345917517
74.89411589674131 128.4527061181992 461.7989639632212
214.66296031150407 127.85995592158076 461.90677184803366
15.773585756630155 127.52054847700121 462.9738671029011
47.934903643148054 127.53371226528863 462.58868271084117
134.8284369944486 127.77147596144707 463.4900128635783
174.71834398220074 128.21230692724365 462.8602371750084
73.49395884976872 127.50599566365351 463.8710175510237
143.48468755581467 127.95057362139077 464.0346135596298
163.0448678584767 128.23721639990114 463.7742047781682
51.66953441079125 127.65433495550123 466.0320470031564
57.06451280666956 128.12567212457287 466.3559502569628
129.65653018658742 128.44321208916668 467.20541115714536
192.49768315207203 127.7028395895032 467.2061985334379
53.93364838161722 127.62975583226054 468.198951611256
86.09232400172583 128.24572438145896 468.31234912242195
179.73699647847855 128.01115056156917 468.34177366725254
143.4643230469674 127.83599470636659 468.96347505914827
31.479441461193783 127.63980188089836 469.6561041140495
47.45419148061396 128.29613053694925 470.3419274461644
190.6683936857641 127.65166651031926 471.1590771046086
216.22528870176788 127.95460279113199 470.96158059661155
54.76247024223758 127.70441872043146 472.24038390270357
89.5090297971177 128.38185933833017 472.36205527021025
63.02385084110017 127.85001393293892 473.4731632710788
71.88552345260094 127.62756347231125 473.21771284274854
74.23150609067856 128.19327074214934 473.2840410889458
88.08205559725364 127.76708567119307 472.6708889168912
137.39392841110708 127.81442235838857 473.0157406325547
50.06627649683943 127.62371807319225 473.55386684930687
145.86376835684337 128.26902766986206 474.34809981439184
198.8757842104647 127.74379171510367 474.0642888177374
117.68577019673798 127.86345800858314 475.3024574413771
145.3763615881066 127.988022598919 476.0338752051908
174.21522422310946 128.08221257127204 475.56681233876236
41.111625762326945 127.76828811860194 476.5618187347216
170.84392479455428 128.47750852440572 477.26911141521254
57.08548631010833 127.9320378664719 478.4426690235202
2.907443816042571 128.41176193646277 478.704854739197
10.161459518444547 127.77449506519787 478.71997552506156
42.540255941190786 127.78247552158047 478.9466506966196
86.60068491961157 127.78133950227976 478.61631451037886
95.56714767233412 127.81035866581506 479.37680494772064
126.37539495242069 127.9820764342674 479.02763458912926
142.00928504670892 127.80094815686165 479.1108147585276
193.68075659832294 128.05242582203346 478.6675292881024
14.87595960323325 128.03659195027873 480.18550104188256
102.59777368854114 128.0532008737694 480.3349992352911
25.243280988703237 128.3918493239814 480.63981128945227
99.42235808505025 128.42491306829606 481.42238127407126
174.99905457982578 128.0023794704066 481.47178410616743
46.26197203963569 127.63485016865405 482.20424630806514
120.6004781495115 128.34797542572807 482.2777454507224
140.21791096459026 127.69694451836334 482.4872481804289
10.322732032413038 128.18492585994954 482.88348323613116
60.73579481697736 128.36879466013426 483.13631724940336
213.76617203709506 128.20456440461095 482.54216967063854
161.75482208542667 127.61475305114675 483.83905331328464
26.491143650853502 127.69895103896593 484.9689869606681
44.609167482570584 127.73106008124732 484.80096066885056
117.59632173229168 128.45900155431715 485.2173872421396
125.29507743481163 128.216009435931 485.4641525314198
113.43574129914414 127.81521303304142 486.8927564310866
53.312580348866405 127.63201212183844 488.523717543423
58.409227218781695 128.07036239975864 488.96633923110335
62.40089301067212 127.99242078310722 488.52314547310044
0.37712222662347716 127.65775628915719 489.98268523214483
48.85204664269288 128.09655628457946 490.4808827397313
136.14173739669292 127.6826580754534 490.9338428348911
32.95053506783795 128.02480176721826 491.8879056498431
88.60275795231735 128.31704075298222 492.235758463527
145.07750764429187 128.45537306110566 491.93327431939366
157.0237096379811 128.36255419757197 491.8621680667263
199.19817888260127 128.06158196627447 491.6674841550467
56.68363425188318 127.99632799293697 492.53918289842335
71.33489347708682 128.16285217579374 492.51570163774
74.59220834960831 128.34051392027993 493.0683816548732
204.56729070041823 127.70319201562951 493.02921014949106
207.97800321151726 127.9932152548661 492.7677607047912
116.14707419172325 128.35815836642436 493.9355548250647
90.97229984821563 127.56605191666283 496.06887095513963
21.045307735845046 127.98914019294932 497.12718197273153
119.93114478943308 127.54148487562973 497.4709400003057
202.69095654774395 127.58678543376595 496.7947103142782
11.365048590688794 128.43746526706795 497.66532699588004
52.62448267649038 128.19834743329437 499.72558958218326
207.10957903781068 127.53452779256818 500.24145413453675
60.074010189849176 127.63782818727604 501.8613082015271
1.481670967674036 128.34054181966215 503.5905231683522
15.41726351753118 128.03685826108872 503.87019602966643
35.37686029516572 127.82235707809366 504.3737492571692
215.1592086848916 127.91676524712669 508.24350601139497
43.66198612053582 128.30894099379347 509.1988145183459
12.197785622914395 127.82813724791004 511.0690728265582
33.64273171272204 127.5932463291662 521.4490555358815
12.231162969594665 128.2759196912399 526.7122785590421
56.38399795939219 127.86059426539492 541.6144766223828
52.913954720881904 128.34443322942593 544.1500601454186
3.2825556245663368 127.51917965651916 591.4910102108622
15.722669578846219 128.44009267216552 658.9626260705106
56.6566687270258 128.31673243356784 691.8644690331238
195.1191524080887 127.87517434066037 693.492306652276
51.73463406447721 127.52506709592558 712.0428888795952
87.22729102228008 128.1413471653044 717.3884006941812
93.2566031267303 128.38542751356425 720.5759187626107
75.28260427539614 128.1256753806017 721.8277691495058
81.34608398351077 128.39214201648355 730.3163024816589
165.3546084615121 128.28095386443513 732.3811345179686
164.41147882315715 127.61939236666849 735.6125891236968
81.09173289769237 128.0958749278439 737.8173609256887
186.4478926329284 128.25039625648586 738.9040722944983
82.38971707873135 128.07886517261073 742.004256088977
63.326559848089964 128.22453978530623 742.7639127162661
91.30509290178057 128.3828832873947 747.0425414932473
94.7877118578864 127.64912485677078 747.1309099437369
50.28949839954037 128.10226631603743 750.8647768824658
133.30031654553446 127.57962483780207 752.933004400264
67.11416260964354 127.75291100345027 755.0119192169484
210.4636595859136 127.56672528953307 756.1423110452287
89.2815701123608 127.97300726362573 756.5393863908297
208.6686083130114 128.01806659395126 757.4931603054501
126.82432810298602 127.55918378569702 760.0252901171399
153.10189191742253 128.41311483024288 761.3064871011956
68.48913713870705 127.8192770514989 765.4229960317936
18.602422616621 128.36796220383965 766.0067227831837
125.67258936419795 128.4788017876241 767.691381608536
56.453247264319025 127.92630989875346 769.7331185328122
67.9670242214779 127.59080961669027 771.96917456095
167.17463104468308 127.79652422231894 772.1518085935734
52.61511385301943 128.2951553453119 774.0465527437652
103.20296126808408 128.09725767474316 774.1507728311121
92.21144975960281 127.845602562507 775.2037063272714
129.51819221480946 127.72364822830792 776.8844319738487
92.93593762264484 128.22265966968203 780.3754032324322
128.89596613967086 128.1945885601235 779.6922492175742
46.86876662872522 127.62254032436661 791.0777000448314
218.14907328281188 128.14936807885445 796.0497384774216
47.044566952976076 128.47414606203148 797.8634895175672
67.35287505096085 128.16086093942445 797.6167092772363
68.32316762436223 127.51270226608473 800.4791348814402
211.18306500139926 127.60636320447529 803.2780735930002
181.5142787592933 127.6711550982835 807.0535342523116
182.4728089212498 127.5193406949261 807.9150679583694
159.7929440723793 128.4749680313098 811.8976840946434
99.63133531552927 127.78572820578877 814.365353465907
46.33993548665603 129.38281481209955 398.9066239224868
26.89905172102382 129.16208084297077 421.4132717468861
22.18748949292263 128.7490269098367 422.18426349930473
33.0485886819113 129.20666701364055 425.2914983138721
57.48591365499531 128.59462027428307 426.15166994901847
63.558413285279876 129.26391089415554 430.1939479185626
74.711110375893 128.7630310661939 430.1199257973537
112.93783735476767 129.15196503706093 430.95482198248044
1.9649953864668248 128.80050551090312 431.87700331363027
142.54737416913332 129.0635537317498 432.20777117065506
172.52385020334438 129.1208631351007 431.56865810643495
43.302716880279064 129.359451044916 433.8101651366885
154.22520983261057 129.155612808147 434.1293463513796
12.853215154424806 129.1111613080985 436.70325337120187
38.28813500196129 129.35496571479695 437.256630132334
150.33892477259946 129.3303308047355 437.3332027262086
186.71122956369007 128.60199032343698 436.5464433663699
111.18502352199576 128.83449026033287 438.4966991084896
48.21247124548892 129.31146828469713 438.71348960984153
125.08564486052101 128.8642729091976 438.80781787655894
143.22543431112013 129.02772366459033 439.22468126952026
71.91393239310948 128.9167587566596 440.0587035468747
182.1332062357145 129.31442884438283 439.6277046020852
97.0368005225614 128.55489978000762 441.13409951542315
198.47457599008064 128.96043535075 441.363640490212
28.446200084200935 129.22611598383793 442.13261418565827
93.40122384365986 129.48534414772496 441.7400889533246
158.20023108774964 128.71694122964695 442.2004354639656
17.569629391472308 128.94667318174322 443.1900487475402
26.535486349443108 129.2322796346276 442.69822963580896
186.25003832693054 129.23344037909018 442.5662133831056
88.12968355027381 128.91340877679278 443.6632678863596
208.1827257315657 128.7391046311352 444.0175708405287
8.39961257862057 129.48698024456795 444.9167209406349
118.58407849816406 129.28001779630432 444.8992770977698
124.69465512244226 128.5439977059681 445.18995272579224
134.05818902758966 128.69652425296724 445.0665919759951
190.14871490616164 128.65471434508837 445.1763007066194
204.44307328593314 129.40164462704402 445.2572927354398
82.60982752780632 128.65822500404155 445.5651263850268
72.5937328629435 129.27604194090833 447.1314758034118
191.2832233188696 128.5236423259977 447.46803975873013
17.351300555211402 129.45296516259273 447.8843871260044
48.627719529112774 128.7867328982728 448.2560867804192
62.63002417133905 129.1249443884985 447.6812097335112
69.87402574885917 128.60221187449065 448.55313556226577
13.113466313580963 128.53463112420934 450.3342834614696
88.29500728574 128.82104357621142 451.01335759943254
105.16141989631481 129.15258489002798 453.23994551592307
183.41107245465747 129.10471121369014 452.974105114248
95.13512672375448 128.85618797827092 454.06439347928426
136.49190482318417 129.1140770204265 454.1215212640279
161.52109148851804 128.7716571124382 454.2600195647529
16.394991253282775 129.1040089485481 454.6846507304221
142.79103660108206 129.44010609811795 454.6218080002686
160.28598979166594 129.2348751825564 455.06894882045697
21.290750567798362 129.2981546871805 456.3196359065343
72.21054073813443 129.28229236068046 455.69782721682907
93.3930178232118 128.85914179331073 456.24665357411055
88.80757503037542 129.39294403952678 456.6830661556969
107.89633706358256 128.73299757746096 456.8924248370433
13.522881131059929 129.30450702203748 457.7586971666316
96.0098702309689 129.32288010165658 459.47258127993064
18.479203601002993 129.32508675019292 462.18141596727094
116.0434123162143 128.6728326988403 462.4250434939963
123.65465215857245 128.62951048629623 461.7615602860369
176.9102435571491 129.21617986060994 461.98866008979496
79.32750182981457 129.27278450828538 462.608652572187
171.0822937680545 129.11943641909147 463.03388427844607
188.83342957552972 128.69325422300145 464.0398118088729
88.4352046423945 129.27125717117275 466.1369893522861
105.83667919302741 128.75388353885688 466.13713138990397
114.60996401645576 129.34757052366345 466.20765055091647
137.11608545638336 128.9766221006924 467.1059415031175
142.26586837246944 128.79014870940563 467.363158647132
112.42764558103815 128.99151133623096 468.41883560861197
196.1101816265798 128.57574912600055 468.4011376872518
169.9047974456831 129.15042244423037 468.60804197290224
200.32619094400712 128.85648799457582 468.65972417237447
83.2772790606005 129.40365549238084 471.4422852491086
135.37146652529307 129.22061958926906 470.7656103064512
37.310942597783296 128.5731317613287 471.50885076589475
209.46991229068533 128.569810980513 472.1917221275087
112.20855649338567 129.47598620986417 472.911524294632
204.68827903695828 129.46478479402637 473.03841297552526
214.33455063188703 128.78780158208036 472.54902482725936
146.91044906976188 129.13442429345127 474.10821729169515
166.25349864380266 129.0386485397762 475.3145667345255
167.5637280195704 128.74793211392955 474.5979410673654
22.930171404761957 129.17743889219443 475.760376903709
112.93739857794884 129.4208807704668 475.92530345726146
197.00883834372448 129.45156681586423 475.58303730339566
219.11698802351353 128.5378001639453 476.00178073834905
50.653140821125824 129.4671118792731 476.88546347681194
52.6735929791433 128.7658671556351 476.50255050003454
43.293213687613765 129.11651308602686 478.22023382893633
82.5648304025567 129.27163318200073 477.8509994810696
17.1525765800524 128.6971152525908 479.2718358379253
191.55441358036708 128.8744861031179 478.59227178644215
11.486554497977217 129.31557295423636 479.98465294557224
41.85193852622824 129.28400552949077 480.21288455974235
75.84022024229537 128.5847141548762 480.0637699052154
169.60145485709097 129.03509857496275 480.2192164359745
139.90320824723 129.4662554168122 481.3143121414567
171.37582631946222 128.55127458458054 480.7742157815509
184.3421840216694 129.45003743362096 481.55923531883354
41.50832364740131 128.66698484098595 482.92973901715965
161.670496582064 129.13337675713368 483.3487300143026
171.45672653901173 129.2269790424756 483.28832325272657
43.08415778923743 128.59578935344453 485.22934672507154
83.49319548965249 129.20693987438364 484.6614786231145
134.5836069808919 129.46841638198813 484.71803282756605
42.616910804245684 129.44396679651635 486.062801078845
172.19156752633552 128.8235984548346 485.5286263633902
173.11444872221216 129.46599130368742 485.5834613217528
9.657398407927532 129.26333394229928 487.06230600725144
15.506569768759816 128.57424923786175 487.28322727740175
32.413714380156634 129.06047645355733 487.0522358972398
62.717788887490805 129.02236031682983 486.70095486121716
77.68955775336819 129.04798174059005 486.91801277909275
103.57302898457384 129.0500249857698 486.5320679125662
121.70380697917646 129.09023772033171 486.8956477657462
126.6860319047628 128.8289559335716 487.4429635863637
179.0034852149687 128.7071200995115 487.0208321945873
32.89693070444749 129.21817779334515 488.48166965857865
48.993238452504485 128.58478479547028 488.476026090467
64.158598719383 128.90963001231887 487.730454870578
98.09379287342908 128.88623992701918 489.1094497884515
-0.2388535312301211 129.19517685677764 489.88436016999657
191.7358081051699 128.61303899829565 490.0777630680117
212.06087779952622 129.16380436114093 489.5607315050279
15.252169939202492 129.2740522043468 491.4127917505671
47.52396175743561 129.14403682970277 490.98450699504525
78.18464425254317 128.6806150043416 491.2399459936966
141.01436415658563 128.83309251398478 490.6314835985002
143.22796184559752 129.22787662186968 494.955448223654
167.23839263522868 129.37660580829404 495.0015806072146
178.2126410300852 129.13275882876505 495.14304803366474
147.06660322223865 129.49838707517003 495.5035829405233
187.98084048889575 129.15478098232828 496.2481802739615
183.31143750298924 128.64105810440196 496.5354774299644
193.29366844854476 128.5420344442425 496.8410887257687
39.438341692522656 129.43998743744712 498.38271746741657
86.17934313852783 128.58354495022257 499.41626499769944
64.48784088252613 129.25175114458165 500.11435346242956
203.69317378154201 129.01015888930166 500.0841172213674
69.57306766428881 128.53473402242454 500.8575109884624
168.0249595211372 128.5015237545603 500.8397063867972
76.57962668030282 128.7349148223544 502.4750492672377
23.839700560838242 128.9884201570348 505.39184433920167
35.05720117288479 129.46916029689265 505.39574759505564
1.820928439026992 129.44526788119816 506.9347845877805
21.455285733579124 129.40882305059696 509.9594774533923
157.87577150292196 129.0339224226946 510.6808486863475
217.2652324138351 129.0299079461994 510.8104879270796
45.762639386414925 129.1653620204514 527.4225700554019
48.1039967391835 129.24701248852182 526.5074000050861
162.09848568049813 129.11212520366337 531.5826744770549
198.2731066561138 129.41942835553704 532.3705376023674
26.076001820743585 129.25840834408407 545.1297723219517
9.371320894401654 128.53141344753277 590.4319888378227
72.52754155364015 129.40958475743724 691.2030596182536
58.87019403916282 129.4302822214226 714.4573874923994
104.12560691472117 128.83427699531236 726.3486925202858
135.11657703919437 128.71643517963628 725.7007956196178
159.56748599510104 129.27161618816228 726.1928868289515
90.1844078218341 129.1231642457155 734.5446515843178
111.91803897810243 128.792439596006 737.4575392498397
165.56725177009426 129.14467385238297 740.747878002729
188.85310682820614 128.52770226850728 745.0549928069868
126.43310059141467 128.88655017516604 746.8343793505871
60.82742995643322 128.8894637935466 748.6388143826279
67.98684800326193 128.60292362269763 754.2261928853042
164.31561403536537 129.18700223934374 756.227765213
66.89419378265553 129.01485011082823 759.4621144689795
104.69660288577398 128.75747024253224 759.9743489407768
76.95807729796107 128.9155263800417 760.7651939641411
79.70899977886856 129.4543407869966 762.891831355389
61.405877432450794 129.17704795284578 766.3764458969582
164.97048854870812 128.58034447450447 767.2852900593191
102.22988806191303 128.5349466496546 771.0946333801332
89.1183097130304 129.40692841056665 773.3370494061226
86.85749236545192 129.06156710555214 775.8531298263599
42.49084693653592 129.09481965663974 776.5617763944924
101.79155078562974 129.12994558463666 777.0510953882499
52.26551322873426 129.3618343632329 779.3137444961668
44.709741530064456 128.6582388152809 781.2314028610222
152.12418747777676 129.21208259009433 781.1478072378006
57.51330291875791 128.73623294232894 781.8273048596125
171.87045657686193 128.8260664334914 781.7489425493227
51.59639708953127 128.5080440560734 784.4250306240476
81.61012895797592 128.65096808341403 785.737565137828
84.27599585342698 128.65742035138175 788.2874773661862
191.54195083871193 129.12426825571293 788.8190674697823
53.12570666076275 129.38482671763435 796.113826800588
176.846471859733 128.79393312603602 796.1178293773793
216.3474935839562 129.40212218561123 797.4533200053944
127.7184973993001 128.53866415072798 798.523425478048
160.58012227849574 128.56569878227816 802.068302213136
91.52981228017069 128.68781664304493 804.3781208034511
128.14618409670967 128.62777313053584 803.6108569009679
205.27927672995813 128.8939114061157 804.6423323015457
202.02166991614166 129.36684107477308 808.0383049494525
89.22007198262304 128.8507090863912 817.2758310457062
165.40956760784525 129.5433012966846 426.64662318965645
4.191954454329694 129.8792084499886 428.0294292056202
24.895107158978753 129.80511715873516 429.93627193032603
15.852249735154098 130.45242607773153 431.4620693477403
20.65683378586505 129.6344407647356 430.78841092441075
57.40061791145866 129.91742813673616 432.0350641971141
14.044640878388233 130.47361686201612 434.1193320826905
16.999989507563214 130.14884956316916 434.0807041907668
194.3774888230949 129.59600160218943 435.23533240713164
109.02853539681834 129.8269816982947 438.3591153972382
24.91792569517494 130.3726542055755 440.060493621674
37.61764363906792 130.1539356435036 439.63819404288233
72.65902260721657 130.33704303269928 440.3502065722446
175.44953877810661 129.7951306678546 440.4736917177491
130.72282920515852 130.42971200188444 440.94806593221267
152.02725544175956 129.8299424613722 440.8673747723452
154.86714683583455 129.97102920833981 441.9412352580733
126.15214366491814 129.94686933179474 443.6281741859459
168.21383160675657 130.3403673337786 443.82088645323086
61.627371680318205 129.54946594002396 444.56484272981663
47.96538100146023 129.77730342906008 445.7799134455728
65.85748030163768 129.81437150908957 445.6715672387744
126.8241604355238 130.03830402393314 445.6936657738172
8.111904238557948 130.17752026668495 447.8204676510119
41.56589222251519 130.29687943596392 448.908686361972
60.81832398454407 130.3217272734622 449.33620528292755
127.4000861802159 130.34638135048843 449.1534053677577
169.6586956197869 130.39730137952373 448.99929754259216
40.85414676684681 130.42401704844326 451.4726394676045
71.12795844859598 129.65381595527631 451.47258194556434
141.29922372197538 129.85635457282956 451.0502775318417
156.56814749764789 129.69739265378865 451.83720098708056
32.54052734731718 130.23801430071407 453.1240115008882
49.149697301041286 129.98923941787797 455.23397811895114
172.9995905055589 130.09295956774255 454.7453992063584
26.804704306829137 130.00480929232464 456.2682604681108
128.20334886545396 129.6236912079485 456.0764442126048
56.58988508873299 130.15655691774458 456.62435276989964
65.81871276754845 129.73747601396627 457.15573232585865
156.75882238982595 129.54758167406973 456.8232752216755
193.9908505785642 129.79635868623015 457.2780090254335
108.4239466820409 130.48912146834874 457.5543731319107
37.42448448452141 129.60342062054406 458.6784908585079
73.15220577137015 129.99943377804104 459.2609140804508
160.25903227065155 130.26023599770053 458.6399668623991
181.76306272256753 130.01468984963157 459.42369501300175
159.95741457693362 129.76546999461624 459.8200744703838
36.071297324160824 129.74818891958517 461.3977274554833
8.727573598903797 130.33519964833448 462.0499030188847
46.94694576787427 129.60312637537996 462.3909965591989
91.37728514517816 130.18561168292496 461.9769446372984
43.39303863992876 130.17614000972077 463.00383334604675
117.00483586991916 129.67270222276304 463.32957645341423
128.21170941410497 129.6306053062165 463.18603324867667
7.269807752165533 130.02301975441986 463.7837482160494
81.23208090931531 129.63538400874407 463.7847342086091
98.03752545900171 129.68215160964428 466.01415765639734
201.83251337282488 129.841906843976 466.21631132853025
18.95378024369196 130.419934308329 466.74982162521434
101.07983440155601 129.52872690871337 468.432571435913
113.5618844204699 130.39249918564124 468.3114305788381
141.5932400184627 129.72131282909365 467.5915092720692
95.92026435548136 129.92617959133986 471.22572919546315
150.53185482764584 129.99235839523666 471.07730943749914
0.04083928772406986 129.99448812875764 473.9895624916756
78.27353444014928 130.4024247833937 474.97204154828717
52.50881742100785 129.8207254948213 476.0284103404533
11.902021698596661 129.71677345468171 476.57714633391356
145.13939171763272 129.84318643576577 477.34526708981457
178.08413785212295 129.55953712227821 477.16160872023164
-0.18246568824770582 129.98124396177798 478.16020620349826
90.22823140122024 129.992291348131 477.7255352969546
133.78945460379285 129.98910818160445 477.5136846036668
213.19219053185606 129.80082008389374 480.09114905919597
30.800869526177767 129.54342470233078 481.194681218777
161.98114604792065 130.39264296916457 480.5772395127177
166.8141148507386 129.99269066881416 480.97910699028336
86.40458527950017 129.6888640266905 481.77332691229503
175.40878111389281 130.4493495435477 482.6290130976205
105.388557623436 130.44721260665423 483.7851978293525
94.4388583039783 129.5967041858354 485.59921763235525
95.29687150035555 130.4236049119698 485.5846816875045
118.96311073656632 130.1205320136732 485.8022741748692
10.065645543571886 130.47629578937486 486.60374836921596
49.22814560146483 129.87316145567695 487.32414523136407
163.95853513728255 130.17809324464773 487.186469292839
30.501061675106083 129.63984192939157 487.87715563058083
177.69392362338783 130.02412757209623 487.9052229021649
198.337490980519 129.9446546430642 487.61110487789614
31.99585314804563 129.96455910489482 488.5736521431966
48.718413144345405 129.80342201316984 488.7340279600759
209.5310175707042 129.63636669874563 488.6701945084007
215.34720238842593 129.54982308194937 488.5878080310316
166.2278424668019 129.7870172130187 490.33216190592987
38.673099594606356 130.3136396627159 491.5365325807882
114.43971004764366 130.3658905844366 491.8375372432578
187.99062201474334 130.46615415895306 491.6963121251889
192.1913577934562 129.71565474176984 492.1496902906934
97.73822496297929 129.60909200783607 492.6060159838149
113.86393887485532 129.52103612970677 493.29250679290936
4.301960883038787 129.90721233318925 494.3759736308378
69.56675213887165 129.5906696296764 493.94939513975436
154.58195172306534 130.4313055071258 494.31597077238445
156.98473128232408 129.93152273005327 495.13241525472625
160.03550300063316 130.2270445221238 494.505821364858
31.292516845398932 129.92405254696052 496.3165032962317
196.17040686876007 130.06323252323554 496.1247173986337
45.47319070816997 129.74509250145925 497.29278029747854
49.61772268363196 130.40438952927 496.88687421728883
140.50030373401486 129.65172053231348 497.33205776368663
202.31333053483104 129.54508389763956 497.4221381595438
72.3991874547634 129.77568280194663 498.489125345221
157.0948022859863 129.55032761130067 497.8244170378276
44.217894831905035 129.80752944753485 498.8773218369592
75.58582614680866 129.55868576191875 499.170987593178
109.50040550400158 129.57726205123205 499.4129815055757
154.52913145339315 130.06328343811762 499.0616426764455
204.95310322250342 129.7745989507998 498.99339623963556
45.15396395543426 129.86469044901105 499.7177855457479
15.239544427346322 130.47457775260725 501.9862774733404
65.48788205122113 130.2961418419308 501.541811234788
67.66503282097747 130.00680164811382 502.1121914909904
216.5873103365415 130.17060176961218 501.6813890738703
58.883787028268245 129.54240323594064 503.3229983621817
212.8847626332581 129.85519389183503 502.55835212730204
2.857791503276621 130.2664191952004 503.7357136206201
35.847112041381365 130.16760263889404 503.529744830647
120.40947514806284 129.88926457600365 503.5038583435494
90.61209856132574 129.89519763242072 504.5993923586274
116.8894862263779 129.73999516719337 505.713899148949
15.119212542191846 129.85624733487452 506.9230663843984
34.72274678439617 129.64720236430614 508.2228692515112
37.545137512868855 129.80989088364677 507.91277402130504
8.031577728572286 130.1096312010538 510.6666711690182
86.8618793057057 129.89277989011399 510.873232019518
3.3829132523793692 129.5493113543917 511.62066551655573
26.802067286784 129.79080239664836 514.4200194997287
114.32023912087512 130.10045491408897 518.1471374623923
94.30654253013844 130.41689660407067 521.5211982163188
3.76213557801022 130.28669161301488 535.3307475527193
52.036218131014216 130.3643755581036 564.4356879868096
69.87321942345113 130.02700556073376 578.6649166472668
27.757728102707322 130.11317236535947 611.2312117336719
27.335241971987724 130.26924318013067 656.2215094369823
87.58130838524211 130.04004083666695 731.1282547187545
82.32283371934412 130.49241366618654 731.9381822852978
162.68558229388745 130.42183989070867 735.7908562123674
83.27639413719642 129.8962787654926 738.3481912923075
45.637133141742794 130.29098664149413 740.1907664013031
62.08801991326241 130.37188457928858 743.9635146576018
202.5852970241936 130.42834305990905 750.1915816493173
203.19754155925878 129.5389469780211 752.8424709637251
113.01649944106013 130.0753740455 754.1901536903804
188.74475642367776 129.63633918856746 754.8901792637209
179.66035470853885 129.64347291569297 756.2873205669413
188.63655178768337 129.6542535229699 755.6332826046499
109.68793428795163 129.8602938465803 758.3832878646148
154.51408287054252 129.98713256241103 758.5770125216505
167.16721851365023 129.63129946168496 765.4926089633021
51.35754548375292 130.11158977469012 779.9639782578137
51.70582480674357 129.96203731091856 785.7333036092119
187.2728629574744 129.61261525094613 785.9508111880168
33.13034795398585 130.35100577770672 786.8738558162108
182.12962712680363 129.53440963792391 788.1857487365961
47.80174806783508 130.24718710943395 789.4145783165294
42.83271685319324 129.95506944188446 789.55050605555
52.554890941270315 129.60339648401515 798.4227820505422
28.935670574970388 129.6378271714592 826.0673378005133
5.400461598436835 129.70091050641645 830.5286530953538
18.447155931212322 130.6265472356382 431.7550262210166
35.707903559332784 131.122912262139 433.1738213976132
55.29690699154356 130.82100828771263 434.035003970871
185.2911883781369 131.14357967171912 436.2116946270986
160.7661378040069 131.18500142464703 437.88604190979936
129.11230274214583 131.2761318261718 439.9723542075408
206.96396718434593 130.59315203239032 441.4222524455156
96.3265730803261 130.7295832852 441.8460531889921
147.83515436337015 131.07317256217044 442.1153042692879
8.28791472915067 130.777611843761 443.02933120207587
19.135571804017104 131.20071194903085 443.25839787130707
211.2819043723421 130.78943292334532 443.26381379215286
101.25019145187338 130.84326019127067 444.0953085737699
113.10688007379757 131.36279414200467 443.84584007389714
135.55950433881117 131.46009962223175 444.1781555557081
49.42780831738198 130.8746327429038 445.20041062396615
103.4236600567981 130.94298773788955 444.56816908663393
151.69176290892298 130.66903420019744 445.45121150692404
190.58824060436442 130.64338122092528 445.1889114914687
14.270373585316971 131.23761205938197 445.52674736170735
132.86288124787228 130.8336645142148 446.13203264394446
109.09539106957885 130.72638758848305 447.3396444650329
215.0215663330961 130.9285018354532 447.2648921889031
40.59094106287818 131.2678887458166 448.2468022239476
188.8753667617375 130.91798069349986 447.97248357617445
0.045242032775656305 130.9956526996607 449.21829865596817
17.930156049670103 131.06016736891254 448.91802936727055
74.33751196067487 130.6776949872612 449.20994701161516
100.47606672142275 131.20648627959986 449.1142764285368
131.40471584896747 130.8579627784104 448.970665404751
153.19915493281968 131.43234376197418 448.88919781048094
158.7358071254757 130.53367345568427 449.71861422542685
168.5918053542655 131.45545494129686 450.4106154138581
204.69092691274375 131.18720524512193 449.66790655725976
93.04292082951257 131.12791645799328 451.14036771068913
98.38149092723789 131.36325599118706 450.89586752793
2.005401782318114 130.54777285713214 452.1953267464454
24.132199948567504 131.3438213548418 452.1205925931415
161.6889510514577 130.59741667501274 452.26634574284867
215.649873358088 131.18463693088202 452.07287008412237
82.20830046345048 131.01470899886382 452.76748014944786
123.36776770592049 131.02200862535082 452.64733565023363
186.35470947831135 130.79618748841642 452.63640876577756
151.3224093184613 131.38988717251593 454.3242999111672
202.44310249447273 131.20085371918935 454.03251971647506
207.83772318731192 131.34481330997602 453.98522878773406
85.98603423372965 131.49144484751264 454.60140917943033
186.05473297224276 130.9630023443267 454.94991495018155
101.43045863012914 130.86203625582894 458.1601247731849
126.53880274368287 131.13976477126707 457.6534386770242
204.4295286199832 130.60671501795528 460.34671451757623
27.397943578704798 130.71079226200504 461.08805840140076
85.89276415323805 130.77932970055036 461.32683105716336
198.75391038537617 130.71162905073317 461.4231185257682
28.46589308192363 131.01110929383526 462.44478606407444
89.88161092278081 130.88631486680288 462.06502084960334
118.08263363911762 131.10391893585873 461.99416147389434
180.12725445395688 131.01742680478938 461.8345608459095
87.39660570674316 131.46408591269085 462.7152779313097
117.83040998724196 130.50573800848886 463.40472391932286
189.88558983838416 130.9368539865011 463.2637449750703
59.41792426280012 131.0270791032118 463.72796334502993
110.72121921939257 131.3367997180217 463.74769787708294
203.4960979260341 130.54129044848773 464.16860146428223
11.137931380438879 130.87066077075556 466.2250204464047
72.32017545658158 130.62677258108164 465.8067816482613
4.390092644372475 130.76247950869012 466.61501668250395
95.62448417079183 130.9464351780699 467.7317695565767
176.55009018682892 131.0946947896226 468.428238338898
203.87939541608517 130.73359271550137 467.9990153769286
55.91420765271871 130.5997811083903 468.8098371348422
83.60728063032043 131.43937716074612 468.5604037829634
128.44882741785074 130.93113379556073 469.1219323192395
148.05910671977702 130.85705855394943 468.55740619414985
45.175677985356245 130.91195473876988 470.8476811685806
120.54161453988253 131.10029845964635 470.5251353802936
44.241228897223415 131.06019961883288 472.40778674809314
118.01253002543818 131.34598139323 472.9584694308845
33.90952785020788 131.22403771573718 473.85769744971026
74.01273425568037 130.75086597382193 473.6858664343793
132.69705936729144 130.74286187654246 473.57867914544113
160.07017175518217 130.85566908323165 474.4640853573407
100.5347308902425 131.06904706441182 475.40601661009407
188.63789180319216 131.4310595452588 475.432234336638
43.486307560631516 130.80307942347338 475.827011166994
45.363399248559084 130.89751108613711 476.0436875489385
138.39847422910063 130.84507209789774 476.060348392359
209.21683275070302 130.60377759788662 475.5577182385385
14.59315744772395 130.76391293420124 478.10953016286857
74.1798110727066 131.4892046711447 477.8445576079112
124.18432100040278 130.68348922742828 478.47936102302833
179.7159324343197 131.4338438896671 478.07038508161503
159.55693002189426 130.60830099789987 479.934247734477
219.3178509426182 131.28289213325158 479.914808515864
147.93486674560046 130.59452198166719 480.56844528428354
5.335942144799125 131.39318371735231 482.1240700875489
192.56142421148405 130.57686906398555 481.7588888207201
59.3596486436401 131.2003531064427 482.641393999178
7.385735898578311 130.75045840429448 483.79342872808775
73.07953685118152 131.19618034505504 486.3825649668981
166.97710852151448 131.3733462199928 487.4451104322965
111.94767696126246 131.20222609093113 487.781504156477
141.37059184667373 131.27642287537284 488.2382670951511
209.4314260846511 131.21997305128605 488.44331849051434
63.5471530563552 131.10954268748262 490.16283206970206
185.8140742681746 131.2145121560188 490.01487741882625
188.01484345170172 130.6880142089213 490.4044591813462
201.3824388687484 130.54748252940703 490.4060542914246
17.18335534826911 131.2254661982949 491.2546971592484
50.02514300373075 131.12025511473198 490.5666457425373
77.29449333650794 131.40762483916555 491.08957517116374
105.51188055273822 130.89333998950886 490.5303702150782
140.80093077660504 131.27768906390097 490.63502239154144
208.7244835280879 131.24340167229678 491.3079974627155
57.12077496830141 130.6759129562911 492.0401131236737
70.0913688813402 131.122659501733 491.9973739500786
94.87377583225607 130.82776407479807 492.3197587328086
140.6415641078531 131.19621966898094 492.9401119870146
19.640046596106338 130.7116981386873 494.3992748368232
48.04640388130479 130.60941331249916 494.05686935331875
118.24022399075943 130.51080071153942 494.09622414313844
16.468347992624697 131.2798581471788 494.67125404025944
55.93530131536403 131.42108345259305 495.0805374938242
64.44467766047488 130.95850481855805 495.46525345761506
