VERSION .7
FIELDS x y z
SIZE 8 8 8
TYPE F F F
COUNT 1 1 1
WIDTH 882
HEIGHT 1
VIEWPOINT 0 0 0 1 0 0 0
POINTS 882
DATA ascii
49.44752487583437 82.64815021108322 865.2106124489094
53.58164795451503 82.85587126748959 864.5758535313278
54.700720382089735 83.16530836925328 864.5058090414764
6.891117918618351 83.45961084232289 865.5425130963774
24.67522434731087 83.4958945461984 866.2537998143715
13.077611220181321 82.50198148695152 867.1199280056252
14.233430877115556 82.53497284329794 866.8098219557371
20.61450082926113 83.11945093393624 866.8257958042853
21.585215894085334 82.50060436083471 867.3206621559577
56.527226332993635 82.58874122849795 867.4607067166907
50.90429703983387 83.36095239841399 867.5721438444358
13.717407774204252 83.11136566091663 868.6141214707277
25.290023164281067 83.45579591472963 869.423639640002
39.92330611260789 82.72941443883825 869.0089190977001
30.995952507368624 82.58991188377993 870.5754300610944
31.73870598604838 82.53581487937409 870.5648559256553
53.34888867185708 82.66189426458239 870.5819533327292
16.03432861541048 83.02290120921224 871.7887561508619
34.89844144675952 83.48579274860744 871.8676948748408
16.237626120824547 82.88452654376634 873.3259407642669
55.80002431606574 82.97985557338909 873.3497077527363
11.626161914461457 82.51913455150576 874.0536742454615
35.1366100410638 83.0224331768624 873.8051491796801
54.05857687498424 82.95012316848317 873.9787716940456
55.154980104009844 83.45386451131465 873.5755563654955
43.38281047533836 83.49856920446958 876.4950454122029
8.597100420681056 82.98814646149468 876.904879336113
18.001284149480725 82.5726159119024 876.7007257988074
18.63468319307555 82.57818361198484 877.1999985366843
24.080373360696804 82.65792470853259 877.8362151386668
9.463240102106974 82.83733880662331 879.0566212711748
28.278994600731227 82.82557377329758 878.9716392849197
7.751090535528676 82.76802376906485 880.710068232235
9.13814745814314 83.13016828758455 880.6140783908439
100.11843085792863 83.03839108416172 881.5376219921742
100.93118019413178 82.98058513519804 881.8381376229056
22.031468496632097 83.45176864025048 885.0938641297698
35.76183311970549 82.84648031225014 885.6086433724565
21.537209759408583 82.7237115254796 887.1484088749694
37.82528208932624 82.69988863554745 886.8234093968019
37.611515684467705 82.55256797141773 887.8604904017286
34.66939467811261 82.69457706482739 888.7154870356181
56.162742060013414 82.6030682552691 889.3967853712552
57.350138808975814 82.66572043414276 889.0754191999051
31.313850872130597 83.16699938595421 892.8942372474448
51.31651018800334 83.06405500681996 894.0190006657695
37.12984891167722 83.12325829460205 894.6002506848967
46.75622214353408 83.35419595694987 900.173336504948
41.1246703096082 82.65136110110399 904.6529804514462
79.54764242920405 84.48468217896378 512.7967269559847
78.51112728796429 84.08818380413365 515.4415421807787
76.60676458533015 84.36940575028459 518.7354745902794
79.64587327706865 83.670363898358 521.1768132496875
75.68526753839929 84.39207452107026 524.0764610124644
113.13064044599656 84.43852453124792 526.70467964775
114.2056090209748 84.41437062654903 528.9532174442146
115.42910326158936 84.11698101024415 528.5762370962835
115.072887256057 83.86537129628753 530.4556477627369
110.72421776186239 83.73878500426213 530.6905044480789
102.21038023115389 83.76222151055163 536.0040802246016
114.81367506965833 84.48651783499311 535.7300159360891
111.77645892422788 84.38727269884845 538.0586602836624
112.79648495204432 83.96992275119155 539.8111151570456
110.71490246880123 84.20066515819875 542.06739527505
113.08403436218181 83.7709723794347 542.7851132764266
125.52626531560149 83.84154408847752 545.699953321091
165.34342693963768 83.67069075605903 548.7040388706146
165.19478465178602 84.48377515216836 553.4933580647286
177.76653501683958 83.74025122137286 555.3919302074383
195.22092557785132 83.98313679939355 555.157280163215
173.1078813898021 84.05166236559499 557.5789027722185
161.5083205607248 83.61143407449418 559.1383139562295
170.84403648973026 83.58483361039768 559.0376873440368
176.47934408408742 84.36384673273301 559.0997560383394
166.23544109101658 83.72465079252935 560.6228080176044
178.4890140547529 83.7601218262083 560.6747602799294
190.91313542481873 83.8942707228444 560.7811815720206
197.30770753629648 83.9223435612158 560.7097591619093
184.5347942163137 83.67401355961877 562.0916886041479
214.16004202527859 83.79535832445325 561.994910049725
195.33443479228478 83.91589017757106 563.4454157810065
206.4399836721783 84.26607008739992 563.3456996172929
218.1408902084972 84.22666108179199 564.0392402760395
173.5249907473163 84.36491768673358 565.2802279779776
184.75696680616903 83.52848001114815 564.7342869527564
203.94125377466108 83.98433975286028 565.3758230259505
212.71175004350863 84.11110607351463 565.4849663090671
173.5142330146661 83.52739254003879 565.8963214667435
205.30506252938403 84.30016541934188 566.0194373743158
190.4037934353213 83.69745216311482 567.0019793799778
196.21660401649441 83.57665343489056 566.7346066815678
185.38667114609007 84.44584286994525 567.6486657476354
186.93103291602293 83.64191645293282 567.5654254795343
205.18649931531675 83.92518654017312 567.7238053755548
177.00670631409565 83.95892389985947 568.8422121483507
181.90559987638073 84.44435122864752 570.4319016216102
187.4901239310343 84.1986184338724 570.6057385310995
199.80182771438018 84.2459417969327 572.451767806642
211.6949186643267 83.72167532138027 574.6103467178913
213.39349471981254 84.38731562697646 575.1227669760709
102.96292757858485 83.50834036589761 628.1920879759881
116.96889635850475 84.44693408308046 628.311420499065
118.40482957375372 83.51744755859715 627.6511343105376
209.70423361845658 83.808464557075 678.5493891533947
197.23799645392737 84.42047685304252 743.6395202436281
205.09727334720478 83.55294428332611 746.7587011011875
216.23227102465373 84.2952405566499 747.6193786959759
213.6761262809173 83.85807108666597 748.8372888197429
218.6218239876667 84.32043457770152 748.9556025165704
203.19627232279652 83.85410040537698 751.054800426203
207.3064606351028 83.96593781837299 752.4536628236494
190.88977062766602 83.96574731558344 753.0391729719462
193.06516406714277 83.80019242006887 755.758513491761
209.7467525505182 83.57870337922843 759.2723833147273
212.08610021996105 83.79845885540759 760.182930478808
218.40285749874832 83.862172849169 759.8873798453631
212.90206390498793 83.81950068927323 763.5239229976237
191.58428548097757 83.80509632811682 766.0108099478128
211.85057188907152 84.16847520300927 767.163218374089
193.69280009245387 84.03801721141187 767.5602592483783
211.6797114098664 84.3736930770614 768.455548996652
7.451835443803113 83.73149093641625 849.4002207629125
21.739321370763108 83.80919733593576 857.284063700184
14.1726743617088 83.66325905905649 857.9760597444337
29.364171389455535 83.60242356279483 858.4484934690914
15.15073472558229 83.99560824336629 858.6268146465865
28.680474347023143 84.20146566890647 859.2446960960664
30.654323012410604 84.07493593910326 859.2452063520471
83.56376339157269 84.33303278642374 859.94699623304
0.735816508142526 84.21295955349522 860.6192209232642
2.627502665624832 84.13056820818119 861.4145387383784
7.230223776638163 83.87155488221471 861.2543129935179
36.920428609909344 83.53985481966444 861.2401924975647
39.12462035477384 84.12744909104805 861.3769298011489
79.86708544432041 84.04847184771073 861.0575528672464
82.25175042976655 84.22959179873982 861.2303972789749
19.733075450967473 84.04808901870751 862.1944321996764
33.89329469807728 83.93081285209668 862.3925232442233
44.58774734915065 83.80065396996875 863.2841681950755
32.73299279953097 83.63677893247224 863.6650206220013
21.427605843960652 84.2699671484549 865.2711003779058
49.762675256240925 84.25080368611052 865.442026857075
7.475194757332183 83.50192637100301 865.5145716562307
48.403395439466635 83.6079683501379 866.2735115013681
55.53253190594139 83.64661696658614 866.3705682720826
9.728447829484816 84.47952860192345 867.3721707780336
19.759174818563164 84.03430103518697 866.7263113089357
25.13690279736943 84.07217175180264 867.0449454118581
28.157826529375406 84.06373557839886 866.7391696800581
-0.08304021996329525 84.18124657427187 868.2061684203999
22.62752533845651 84.2330438840429 868.8921716602385
30.100434281970138 83.71438802112819 869.7106103354774
1.236835837370205 84.44274899501809 871.0711498153491
3.8639709546519643 84.1067200577198 870.554609685499
15.20445766783646 84.17547115761666 872.0527186746492
83.18179025601194 84.45824729223224 871.8662981971868
44.7353761307984 83.92168935351363 874.456721808216
47.85751642978252 83.78447788239556 874.6643460736501
12.956081576384602 83.69698651993508 876.437683483161
43.09868166628212 83.99045720475428 878.3290715728685
15.847098627257802 84.07401116309731 881.2385862388745
5.228206793629869 84.36118149874194 886.155081405296
39.996818422151634 83.59488559123847 889.3283122986908
18.888015667781772 84.24598051293428 890.3099536101223
20.893829153535286 84.40727921924311 891.2594342259385
81.82095361450689 84.68970341941336 513.2854881614094
73.26215479709117 84.54345738036258 517.1429113922188
73.93164998167708 84.77082714834903 517.9615909059073
78.69484253637262 84.71196894822724 518.6619933445378
87.84192236116624 85.04576703515316 519.8417255742047
79.83349346000455 84.80333042089353 521.0728766549843
77.606440708119 85.05240910176586 522.0567233621721
86.22757084261792 84.99982544932736 522.7778164411264
82.8753852704742 85.23748889964988 523.836484649136
77.74385396282624 85.27146559960079 525.4740909872173
112.41126779015555 84.52177723323867 526.5776879706777
113.9297605228178 85.13090861648105 528.0150107406647
109.27406673079545 85.29905918216359 531.5666557128058
113.14466695456082 84.59733567940361 531.5262655807509
113.26920855635946 85.02497428078772 534.5514023369406
110.39253027449283 85.01121703484759 536.2058343492547
114.13817405173143 84.89797010609189 538.3032109261723
112.2372718083184 84.50900708515273 540.1979842215725
112.59015146381408 84.70831057492342 539.8542785368961
113.12098614819202 85.31388533685484 541.4080915624681
114.06626128588276 85.2455338269576 543.2156688306002
112.96712240108715 85.10028702345355 543.7512070374174
126.7092895897411 84.90444078848509 546.3534517488275
128.09298510866103 84.96950740526695 547.3908895294763
182.47236705613344 85.10097483014516 556.6821968121477
161.6233422686218 84.59184503722967 558.1600587577849
187.26932462162262 84.66013382824035 557.9546843654524
201.41826635783409 84.51754137292725 557.6128851735256
203.93378500225782 85.34038271416067 557.8234168465863
162.45154160525192 84.7939972050118 559.013485673748
181.57025342580076 84.82323616617882 558.5146793149828
197.1202842579476 84.60728394092257 558.8781984011014
204.30602341836743 84.54775216378563 558.7889560130494
208.4590519518923 85.15205780215989 559.0549555413514
167.67892936396132 85.2840864788566 560.4961906525224
171.47629604383528 84.67410499078447 559.5596309457896
187.03261736813468 84.81497524872246 561.3062643803204
197.518811332373 85.15991995444963 561.2334893075799
164.1453829392576 84.6968858380101 561.9557318458773
183.08229453286185 84.6580475122757 561.7165435986964
202.0925981797115 84.75295073105629 561.9724800304151
203.1650040554168 85.2166350260538 562.2075963446221
162.92358648852323 85.24612696651654 563.3812013874265
171.7061783703725 84.56973633366003 563.7403445030425
196.99859335679466 85.45333946557824 564.4307332783877
207.33590660246503 85.02225889647175 563.7098467164877
199.58434938262639 84.78778544318168 564.562250298603
216.64087956334228 84.98618605206796 565.0409372977699
219.46559941035116 85.1014104734973 564.6375782403096
171.79415900583996 84.88690035745569 566.4890695647542
177.74446716497246 84.9394696558048 567.0251624933355
184.5681564186475 85.36422814065648 567.3022362456967
196.10409829848746 85.43766001606555 566.9962047991072
198.62340660802116 85.25618593735088 567.4753566228625
212.42251567129864 84.93220614362536 567.4426867420722
206.76901533833214 85.19542019784664 567.9286770645043
184.03339566111032 85.37668527467855 568.7302794122184
202.69857678309077 85.33892782471771 569.1240791789639
210.25796929887312 84.75669666513026 569.1317739966405
218.06398754039373 85.30086271857084 569.4598836200616
212.17144018865025 85.32185852107938 570.1409137610203
212.86325930099454 85.24423365765179 569.7693329112558
218.75792114846732 85.0936157014289 569.5261723794708
193.08516092342734 84.70977901099761 571.5529771591575
196.7263516911992 85.48522448456289 573.1816650482674
201.14632404475498 85.31252067326213 572.8204370910332
199.58271919703517 85.34583973815046 573.6239221837161
201.50146159493164 85.11624650972476 574.0345472951432
214.1452152318138 85.06889891365715 574.7608939823143
205.13007516132498 85.00664624309053 579.9887796142946
205.6525189938887 84.63513763822624 579.7826549829318
128.1640785953872 84.94769826325974 603.8621766143616
132.424392818485 85.05559743713036 637.9918862620175
167.32889286833858 85.06992379217907 639.8607070068889
67.708706226027 85.2307916122262 643.7238063229448
144.6187966141996 85.19205447386356 654.3112628403886
144.44389127023518 84.87726222244198 655.1961946652616
170.81712725217392 85.42362506938245 658.8072508239605
193.17058223768106 84.87873997515506 750.7627122962792
193.8167415174262 84.71164185797892 752.0293687149453
194.9641953496278 85.28283767007264 751.5156208137118
196.53361388856294 85.47471305434809 751.6356839951349
199.0273133856059 85.3529968502872 756.129649663318
195.98048943945292 84.76637830607338 756.7743636172135
183.99445992966187 84.85311970925112 759.4713352079689
183.87839089114087 84.89224086896843 759.984178484549
191.83349889223012 84.97794118879555 764.3493891712747
181.76793783443074 85.04046414382988 765.7151757281961
182.15131452898058 84.55628535822011 770.9097615993658
178.62571656444416 85.46164914925264 772.2689128491243
181.22794936722573 84.71647544052895 771.5355335857876
11.236122091272314 84.64036441528646 849.8763295100516
10.964712663218302 84.53920121240554 851.1924850799314
8.975493969743871 85.21325091120896 853.4110273285787
33.3451600500386 85.25686195982517 854.223906340228
7.555647088688965 84.99674051593752 855.0940696312879
-0.15661105527232944 85.32507142949054 855.8789276942717
23.277916475384483 84.9090478174654 857.3877882915954
2.66205804049566 84.85017341350499 858.4167101393599
37.810791415546745 84.84860994883871 857.9456345185847
-0.4465059263913005 84.58111146538815 859.1553014956719
5.0050182746235015 84.5843079551105 858.9696617747238
24.121171227762822 84.95641639152568 859.2489409386039
6.143621908994302 85.41719803495415 860.3265212648406
38.71230194477526 84.62122941320317 860.4092172846475
50.49178562942038 84.78935141891102 859.5126097991167
55.49865029901536 84.85773739360295 859.7929740187568
7.079644820645166 85.14788687993942 860.8381246876367
48.01724079510636 85.48396607019933 861.3957554919914
49.16640027648928 84.8057445951796 861.2418859807145
51.47280385939256 84.53012040888045 861.3944875574223
0.6440419594534778 85.04276822341544 862.2504619618344
4.430012733672452 84.61896887485698 861.7827105452938
93.46952057832257 84.76982225718551 862.46601485039
10.127778912292696 84.72483034371486 863.5203730575871
27.80859959996534 84.62886987121189 865.0591207209694
56.86563980273381 85.15385873964746 865.0776782181771
18.149238616694802 85.11249571043439 868.0261048862191
2.996417926651058 85.14339186321399 868.8554422915245
17.836375360451616 85.32610444408418 869.2443049548843
23.452196500470006 84.65278452825606 868.9166033192702
23.980688111379934 84.79890665409305 869.4405857561745
50.886778937093005 85.05678493123636 869.4874152186508
37.87579705810014 84.94787926101901 872.1903957204289
48.87566821884361 85.29453844143816 874.5896430261963
16.332408328556664 84.82983448529077 877.8811166052174
89.85801069235798 85.45197588791775 882.6869633472152
4.268570145422716 84.81399412201726 886.181494611402
21.51061790862899 85.2186721178634 888.0710551800493
22.569505306282224 84.5543974703028 887.8102028290406
38.33497002356209 84.82837186572863 888.6930053828687
43.561269675184796 85.28794035801991 890.5859142282071
23.736148800184264 85.19868994628432 892.6203579711847
22.48247568890603 85.32811139885403 893.8699041987153
43.57742156044715 84.54061299719577 896.5061410047772
65.18054551781715 85.63956975700607 501.7081412659221
61.854707486152485 85.71520530062338 508.2678631845929
63.81966976246843 85.700650105496 508.0946612827581
59.672832067081465 86.48693353050065 508.7943604132861
78.19755398259474 86.32621204500495 511.48503473390605
73.24327288331395 85.93989959380367 512.2798012151969
75.42652949557277 86.27006088585999 511.74417864187046
77.21857971320462 85.82622381562378 512.4139773678498
80.26854812153253 86.49809654864114 515.5365107905902
81.36662714174273 85.6658573960423 515.8871953720029
77.90868739416477 86.43980946769011 518.4908906968345
86.13165123019871 85.67580359896375 522.2132335975793
85.03217062872132 86.43912659196177 523.2644223265229
86.043436047458 85.55620395734313 525.4113283910146
107.1118733311796 85.75435130208353 528.3726828912294
107.91229746425417 86.48646874182867 529.37309499942
94.00641263709582 85.6593214703398 529.7227799443746
201.45214084544077 86.23109689836521 558.2701992197789
183.21974070256934 86.07826626567359 559.1379782947718
204.38800181585577 86.3241285955864 559.3999576347509
193.2997616713061 85.51828028671022 559.9162234965002
197.49584570680852 86.31161991515661 559.6790826373673
212.06316466031092 85.88729767637588 561.403819792718
194.2793351900258 85.6591235181414 561.6860738188602
201.38053947919508 86.48746053263747 562.251622323482
181.47175402832227 86.4616109744077 563.4248574098509
182.2965219202726 86.1409401897789 562.6077663828626
183.58006646072232 86.40715225922095 562.9044111445352
201.26432489289567 85.8499622995939 563.4129406620001
197.39460948831163 86.01511639551916 564.3100715957501
177.24808755038794 86.05833145276024 564.8983097348604
194.66197189739452 86.1967933868041 564.8661747618619
211.84959750813186 85.72906922511577 565.3068064040314
212.69562123490968 85.94363007279175 567.0124375259991
181.48636674678423 86.49953294682308 568.3593828494185
185.2997701470895 85.89012804299358 568.9868379636353
182.14690735116582 86.33972221375984 570.0995197817015
201.14341138652154 85.8091199517958 569.7165375838163
219.2814935301832 86.32892733597915 570.3341751963774
205.649089034944 86.01686441231436 570.7557063559701
203.96883027324373 85.72574461388521 572.4542093231436
203.31474781268702 85.50482942957477 574.3240605611212
208.02559850352787 85.67426537105676 577.91687854979
165.3757258069133 85.72178415451114 634.7470991730153
166.53164906645966 85.80714872572361 639.4538042708937
168.43823654640124 85.86539027949425 639.0888249007369
204.0514770216927 85.87801854743238 668.5217952951331
190.98489320211948 85.74761557572016 750.1705538626469
194.43944291942827 85.53015689800952 752.298007634413
194.31656385378932 85.85774036403599 755.2066077543637
207.85270935518258 86.4775065026881 755.2796282044218
199.0155302362366 85.53834997846486 761.5763609695593
190.87202690213527 85.87508784683843 764.580998674197
177.23630397343246 86.27402852902074 765.9037138862479
188.55159607096266 85.63048360833602 765.9615985058589
178.13888539284073 85.59270848039941 767.4442000923949
24.572028394531515 85.75827117369953 850.7656692498681
25.537117437054434 85.62040462314258 853.7810487439864
27.067437638058493 86.32711469672151 853.9435234204592
29.594433161370073 86.46755367781543 853.5699400515888
5.31906421355227 85.9946742613225 857.3922488266908
5.927300252504458 85.83125674798832 857.0157056425795
23.827205587816575 85.70991338067101 857.3355750575041
36.83221987450361 85.54066925816016 856.7558855792121
30.542330515285702 85.58822632703749 858.0617248588597
37.99516058759687 86.44302973021897 859.1224153025145
42.692374270693605 85.72038416013552 858.5227801718881
1.3184688908188957 86.09982955516233 859.8504834834267
79.01053831452043 86.37932727873303 859.8159326610701
2.110780596356717 85.64975953820675 861.0021229568263
23.017469927852197 86.33176669562329 860.8827980565428
25.080165729432117 86.3813768932568 861.4526286938092
54.898703772116136 85.64362442723849 860.8356757389984
36.65680955617339 85.82497858835441 862.1115750198552
-0.14533522796613774 86.36363051653989 863.4153761960814
31.26668646011041 86.01499222876814 863.0273088502105
42.18230085299927 85.95255608938311 862.8889768425271
89.78668462159308 86.45901812694854 862.7890173604803
26.727921772075142 86.38574631907741 864.5351997482019
41.09499693957988 85.62026097769323 865.3008531796005
7.288995855752933 85.70877199790863 865.8858785062182
9.85065408942834 85.64549917522586 865.9130093301997
16.009954547045766 85.71449888373618 866.1944488574943
17.070945152924413 86.066150961854 865.827794157917
28.621924959544046 85.9952551469363 866.8254121980684
31.694778956028433 86.09270646706167 866.6128014237325
7.639828942357924 86.1199358000683 867.6342344779752
16.39957855291071 86.01897858527727 868.4246038336723
33.89460022100356 86.01582880635985 869.9614176939184
88.29367038907542 85.61845054977846 870.3433352177266
3.6223141636504534 86.37083816206167 870.7851707328875
83.79640600357544 85.8418547393324 871.4203070883178
1.4876292777973759 86.12545390724786 872.7149303205955
38.05694444933179 85.59978531609464 879.9315283603344
91.81509152028265 85.559562953763 880.4374760020842
11.700200260785953 85.5134771936972 880.5438029510892
42.833874700403705 86.4061918408569 881.3062316067434
4.99218170123746 86.16991828533766 884.9099688749013
27.19602711171495 86.14408935348733 885.5023712156434
29.745602106629477 85.8406678723747 886.2607994004796
39.55516098473732 85.91968860833818 895.941865755559
65.06717195064563 86.700953031796 504.7055110098694
71.22775001167788 86.73362433201403 505.43511855905683
64.32002753628545 87.06170215070634 506.03275586579207
64.58284563662794 86.64024474526056 506.48979377419613
72.57693249156215 86.94362964334225 506.93344260287347
76.55441579516204 86.50716040309624 506.75259185054796
65.88650148273757 86.9523617090082 508.3916718341267
73.70749861827576 86.83548123786004 508.5981272799403
71.58250150603159 87.22552834802703 512.5340008380383
87.65807314938661 86.58923341150481 514.1528032399959
71.99464381657583 87.48467348446421 515.003181888971
70.57890861241522 87.17554828501066 517.1435232162096
84.6551646047763 86.51875384635487 517.2302632502128
74.61206080173032 87.27640908281647 520.5185747977866
108.24464076289404 87.16518417166432 532.2385612148853
109.78165117746023 86.54335066692587 532.983992765091
107.27614942250828 87.33950035848409 535.2114772487107
104.57749619008958 87.30885146066265 535.7819034545428
108.08278174802673 86.97998578877403 535.6725153323665
109.67746843209524 86.97756064119984 538.2552883326705
190.73873488646922 86.98594030128388 553.8666604511133
205.96562836621752 87.16328664775376 554.8747545598691
193.8112050021541 86.88013936286174 555.7755123752257
191.42484067553332 87.24670998631228 558.1598712247124
204.48964154050955 86.75813304163724 558.2818259104278
206.52946866905538 87.12081528417363 558.3114085210806
195.84066953294598 87.30511843583744 559.7075302782329
196.63809193959872 87.41582514079252 561.242991739374
208.56025711478785 87.37930161034943 562.0739304691025
213.13307645021115 87.32484647231874 562.4052702956161
193.43245376454612 87.28903468533609 563.7563742873418
196.46667488489456 87.40887002638871 564.2212055058807
208.09936599595324 86.90334400194115 563.8618021663012
190.10843329701132 86.9918489579289 565.3102413350482
190.05547240748706 87.13348389122966 566.1985463208866
191.00833788098498 87.23136877935912 566.4094069303771
186.53613481978513 87.39693345597031 567.2610466357363
195.92262119821555 86.73298927610679 566.6759079715922
208.13428523263622 87.27137739823196 568.4778690300571
210.62007856188063 86.52158282052928 568.065920850105
211.77417754434475 87.06771416093328 569.4949974998827
202.67592915402614 87.09955958527817 571.3645385035463
205.1395202355146 87.47671070088006 570.7623350582152
207.26326848961142 86.73526811325002 571.4041700353058
214.04778048687558 87.25168568853763 570.8304266874641
215.44312099931702 87.42272903366026 572.2863932588936
203.45167400009464 87.14404247577735 573.8510080143842
206.20695220542822 87.08904651102898 577.0767240082321
207.56924265301032 87.25941422060394 577.4863155795621
71.49732076710627 86.97468970316862 627.2274584476268
120.52451812609279 87.02864386848867 648.2458840206583
134.10789739637474 87.43123561680277 658.4474046081559
196.96395405470133 87.09248906623498 677.8680065206386
184.57894180968594 87.31600402958838 749.5788586164291
198.12223040433372 87.08617712032532 755.0673526647348
205.11495521715761 87.38775986928677 755.8985252847291
185.46447250469103 87.17518881322324 758.261681355523
196.89454719060262 87.28210701853742 759.0120659690826
198.88359644020966 87.21295686639291 759.1925097536539
180.58811711349225 87.47865836039543 760.448644352331
184.99312523942768 86.76237207683265 761.3771563079673
190.09805575256522 87.35868313592827 767.7868649900385
182.39532107154469 87.12491467914768 770.491240199076
189.50157337404883 86.61852783719105 773.7863894535728
181.6261782299557 87.13758667812505 777.2647937357427
183.80023135517982 87.40225458578423 776.8520196749288
7.590251441278579 87.28162097060218 854.0391806799299
31.3451853204551 87.49970896457377 853.8945682812207
29.31081327938763 86.5850244790907 854.708062880719
38.85181444863217 87.32691547546263 854.9607007318485
27.40863440509917 87.43148429969888 856.301635347246
50.386000182835936 86.58797680445063 859.0479935509308
3.211074778456443 86.87901620991452 859.7685880388717
15.85732544394973 87.00043112954137 860.4146000307356
37.813029571075226 86.94556191394469 859.9708927307008
44.81263303159156 87.34199005785302 859.539072981993
27.24016313604769 87.03871026760613 861.8506555516065
28.772984135528468 86.78844201769694 863.1042808320054
34.507076452029686 86.55143246438287 863.2577374002643
44.4495348445875 87.31168089123712 865.0507891035993
46.55448303944763 86.91679295273785 865.035074598016
11.465486297919385 87.3205275585033 866.4003656321966
28.682882781114348 86.8379797477854 865.9129280664013
32.851515865218644 86.62367084107213 866.8175557714364
40.383121682214465 86.76258675943227 866.9276260696977
41.88402053984506 86.65231128052356 866.9929706976851
27.521072167899664 87.38999262009078 868.0478806413905
29.86698852666809 87.12836594671047 868.6541813319166
33.825350318147166 86.53065968287905 868.5203377796191
40.090674235187045 86.93234517189745 869.6968561317481
88.70077292796475 87.20031090800305 869.8760417406933
29.827430319317884 86.79527166452466 870.7794832915399
90.31344915288064 87.14290015273912 870.6730215287994
3.21265259102171 87.41393998994957 871.6360568713675
34.04885359938865 87.31734920065122 871.8759904867541
101.21003103692902 87.38039692736756 872.1752471357405
37.148275315749586 87.19631089686058 872.974933237022
88.66814165257561 86.80540762976749 874.7871560038272
104.93573205408742 87.06558517865443 874.9657758296057
38.111022505370755 86.70937272476628 878.1355254161051
109.75165171426455 87.20067522780325 878.332588034025
39.654141679637846 87.33825555695617 878.9500414305693
9.02801096609447 87.43960835900955 880.1759087429879
43.60041298214501 86.7352361850759 881.2717349492027
11.745421561281223 87.35696175198836 882.2179722683828
13.913003985864888 86.51942613069622 882.49067999435
41.53737604004818 86.68062803033017 882.6746254463018
30.399308808809614 87.19944082664206 884.0154348434438
42.414968465527885 86.92837094946343 888.4214118059153
87.80775141693285 86.98650390913717 890.8776952797443
2.396078245967303 86.99550143238704 902.3821487358023
71.42189270374303 87.81497286846907 504.41945082098727
71.34570628825482 87.8150630009452 508.37296457748016
69.27733422642046 87.94874491556564 510.16109463733704
69.1387738134531 87.78081345661644 510.7033486738937
68.96187001496189 88.30930594366134 514.0319110924834
71.82858962476803 88.42685930117128 515.8305376237072
86.75332486761404 88.27735624470341 517.6253259482772
87.46441968576123 87.83086133993862 519.9699508829327
85.63627336886962 88.41257521002493 521.9253927195875
99.24499886413524 87.57862873881487 521.7597781907664
86.5946165107459 87.90403593235466 522.6720993861281
82.64670954698924 87.81164713861128 524.2694755148273
97.77301264581024 87.8397081421235 529.5762214178478
100.43184073001612 88.47948870773006 531.999252557516
107.59885731077563 88.27830286274144 533.5547952625003
108.89051102371317 88.21494144907676 534.176459153607
110.08698152221767 87.92723361276224 534.3084829445181
110.26721186865566 88.15561871351862 534.5076210695787
192.57953329846956 87.87432946015453 554.4172330354471
195.02017272626202 87.90390381169671 555.3611031321688
196.38587744838347 88.04165038184965 556.7179979444288
192.7792016135448 87.83781997427836 559.0264359436629
212.673488847495 88.02953200514166 559.0562416066556
190.00859551926845 87.63393228697426 560.3504153583528
193.7313502964891 88.22130171014916 559.7392315149873
173.16937285923666 87.7705605660578 560.6213364969983
207.88307322334626 87.99549159458519 561.4817428201127
194.02263440915854 88.00302961631203 561.9358917419069
201.51820895461088 87.63571168507903 561.532224344884
208.34280193221383 88.27345635914746 562.1012190090413
219.20032683325647 88.36050397595523 562.2021780194215
188.87217840488978 87.54607268636893 562.6272096357757
206.9526957504643 88.40017896772775 563.4632896663129
188.25110494451093 88.38592621655978 563.8483459690945
207.13962395507326 87.65989609320097 563.6397735694562
208.21297229097257 87.70534228970895 563.7832845383027
212.78438703480265 88.29863584032425 564.4420596863246
71.70091215178424 88.01711379011999 565.0543147177732
194.62006452154483 87.89999401934341 565.3008640405391
210.76910817011768 88.11031538819651 565.4730263079877
212.09078058581335 87.50674180793038 565.291812984978
193.55445183483243 87.8130686969951 565.536435074697
203.4512752744871 88.46576216803737 566.4754997940446
207.2785948203296 88.25529994870418 565.9843233305171
208.40846305158777 88.36936859406524 566.4645682642688
213.60584264683868 88.48405947080387 566.261380368407
215.87649279434368 88.4909207549573 567.2597841251722
195.65782295534714 88.21780020798151 567.6377637688784
213.6347619080806 87.51903243838562 567.7863845458343
215.84124244732507 87.6940593636162 567.9660973848355
201.83006446942423 87.90127111766266 570.3878208016878
207.25601769266456 88.45893030815395 571.8468095759799
212.41247401994264 88.37228728548871 571.7771238160404
207.64633228896975 87.6025860954738 573.1436385484865
213.51736545000347 87.78920617477483 573.4215299180305
207.29968551248308 88.13272259436563 573.7849121889046
196.96633023232965 87.76990757633422 746.3522442444768
206.4656408987133 87.83135321285981 747.1113084961075
203.800265272608 87.89957239885037 754.2711635676945
190.1016927430333 88.42901512860593 756.8880833565771
198.29259359538239 88.00615435461836 757.163621963118
197.84213482021352 87.74447223283579 758.0070719617534
197.7506765576879 87.6415780184474 758.94420785448
184.46360202556212 88.20768130198091 760.0971665147753
182.37662060442514 88.07670704164985 769.7110540594194
180.2137461711052 88.19015179235994 773.2207147162064
182.91561301602582 87.78162975823345 774.0420167069329
188.91213179043882 87.88373577311903 774.1620108410726
1.763417772725706 88.1555793053617 851.9004059510495
3.412155255896458 88.06220586843109 857.4035160506185
4.391106874885192 88.28200985136466 857.0188250427414
-0.4278646026618136 88.4419147945463 858.325293207997
6.917476097143241 88.249177143906 858.3296652256874
14.974564488966607 87.9574799770983 857.589298139121
25.996705836391484 87.6004709726268 859.3014144724779
15.52361679641857 88.07502750978541 860.0244493982261
21.238937736697853 87.80981375990547 860.1719590452547
36.78286441370344 87.66857946425887 860.1244165280106
6.564727835969783 88.38448029427533 861.7392380597458
7.780216203207372 88.39672326895088 862.3759666424627
13.923444781511858 87.65402740385132 862.4797564765585
13.76308634475724 88.28247368997323 863.3081526000295
15.485308041911814 87.73737118247263 862.8964327498778
25.497625732403534 87.76795206273323 863.431999059211
3.208437732143192 87.93687109169672 864.0302292243422
19.41901470231449 88.09989767994911 863.7676415431646
47.12153903911687 88.3484020613466 865.0776134606848
15.675411895477634 88.19499740757773 867.171973477024
23.896273918788825 88.1215907228955 867.7876241308571
96.2018845488325 88.36439053856913 868.1325485732584
12.353161872556024 87.75998851854331 868.631988670501
46.6460485306264 88.35539322559242 869.2598419483222
13.956078704727982 87.84168086243665 870.3753298772458
79.96600710845723 88.14087274222109 869.8048934408636
95.701864079999 87.76411544461143 869.5825843445228
21.292713067450084 87.80277934775252 870.7938517156832
103.39780736959278 88.09674875865898 870.8041468163085
27.678765990629163 87.8046504053251 872.3671611525081
43.36703274590585 88.44767830378375 871.8647003537122
74.73338149778968 87.55899142115977 871.9927108732112
31.694151259810113 88.1202452983239 873.2152837233981
77.48791562258499 88.38449299983566 872.551247957901
31.431264265810242 88.05178057595558 874.1989871374631
11.171358789228227 88.2572474760162 876.1102150687894
104.87009200087904 88.40694731645019 876.4303402361382
108.79586046594751 87.52645604783449 876.1434957674246
14.28336158965938 88.07067641374661 877.0591335798865
29.130989549770707 87.72689562384247 877.1712303191202
17.29785134416718 87.51949093371655 878.0624730948947
109.35086436866565 87.54328605660935 878.8994037644438
29.44017111941988 88.25515349916651 879.6976605471584
5.088041182319095 88.42682206742812 881.1444044920631
113.82393267992175 87.99405575858398 885.9976198779907
111.37385446081859 88.19348210380687 887.1577656767364
113.42411095856502 88.40598405262938 886.7151852530683
110.07301684869702 87.94539129683317 896.0076356698797
70.37911712383548 89.33948118476366 512.6678497365433
74.39255318031204 89.20300648308411 513.6979819895416
72.34562531129001 88.6395359466633 514.8370726358155
72.81401431153438 88.5375095682103 515.0448108938544
71.11251388166151 89.36028489461651 516.282519795081
71.27953100278609 88.58557168953492 516.8759314804594
87.85088065578739 89.22031913814455 518.3999719843075
88.75806266841673 88.84679959359258 519.7251147295373
99.30681486377593 89.09382424781691 519.7811490448497
99.10653741689673 88.62014217895968 520.9443337312422
88.30455252051709 88.54613131245011 521.8563537985356
89.08542642610237 88.83617863000578 521.6797066723941
98.53081327619734 89.23901162453984 526.9948135546775
196.79833285467595 88.9904440120928 552.1051300661326
195.6931373498947 89.17165779763485 554.1524780271897
211.31518722025865 89.49793905855546 556.0728716750722
194.3789937782048 89.48414536569386 557.3722327757272
198.22572124883308 88.92041548866372 557.2748978137688
209.51402640785219 88.8684913811406 556.7088594284743
210.47602374269843 89.18598701549972 557.6647071139483
213.29792171689527 89.25003283260922 557.8922783543618
197.3498630595322 89.19094175207944 559.1506004827552
212.3742247898132 89.2839740878416 558.8003373330278
212.6176659940933 89.1215208299991 560.1368761319256
180.75831581633787 88.92861767718418 561.4417663137206
183.42664217031214 89.11576233598556 560.8217587829506
211.50072956787102 89.10217699766558 560.9267752488636
181.21951517486065 89.48915295921364 561.5653053301219
200.67964294681036 89.02424243014465 562.413275046171
180.65704973777366 88.80717843442586 563.4032685763822
191.17522079417745 88.99641098680819 562.7522915246192
200.5676026560196 88.65071348419629 562.9974002739727
185.23229291275678 88.84066205216503 564.0378597460794
206.78638085881215 88.8687179716703 563.5904942729007
185.4452667904234 89.00855087938174 564.6638507945404
198.97779808093247 89.17594668002278 565.1752659821123
214.44049341214762 88.64653330040899 565.301425590794
215.0717359384017 89.03965545185687 565.3022399502476
189.32838655223279 89.14257553105713 566.1217778478663
208.57748078224304 89.00429004797141 565.7506205018205
188.90614422730866 88.8563546583635 567.122616239884
218.27501048168818 89.08745188571098 566.8537203773637
189.9766786739364 89.19347059936328 568.308780256178
195.35470987913288 89.40584809999027 568.1769837554625
195.11286754212279 88.93789600439487 568.6973354279575
209.97276946276753 89.24104044905253 568.9822684695533
212.9226473344407 89.254215756506 571.4407520074202
209.84188438309323 88.7075161173897 571.5595643007681
212.15888752232325 89.21993610041821 574.7076649686389
193.15356709854856 89.40169805073705 748.6692546998725
206.87919841350455 88.73211091774124 753.258160879155
193.0293613275749 89.10767859039183 759.3188419265047
205.2745599884007 89.23043822308762 758.5045915368266
193.00011079775055 89.15977856898361 759.518356428239
194.93540785129295 89.32849995160893 764.419307507694
180.81817406370064 89.44101713306632 769.0298443687566
179.5692391848266 89.36448166232842 770.8861152692152
174.56915139983784 89.23617183381621 774.0207912018792
182.24658436466993 88.50089084948526 778.6383081794672
180.8302857404415 88.52336371674794 779.8383503601913
0.18807694419856436 89.47543245484898 851.5431116100032
8.196217010982002 88.82260409615787 855.5742508989856
8.820163823906663 89.32492073921469 858.002100330095
14.38212094247795 89.04358508971815 858.6755696473112
11.873192063000491 89.1221722724116 859.5454149320149
43.923531519417246 89.33088747255863 860.4947441829366
17.602570807739866 88.83354789735607 863.2976236499679
23.484528361368003 89.03788345464741 862.5146040147279
25.198281450984183 88.59940488651324 863.8099301183356
30.835019053458442 88.93697534120479 863.56955951206
15.100916475142755 89.34012863825345 865.3484628443531
17.330041626842625 89.18778071400223 864.6529039553285
23.430722622825304 89.0076398644881 864.710445894082
25.011988228977614 88.76623409338771 864.9614478730279
26.39149828256623 88.6709327217992 865.1688735875321
23.448856509338746 88.95216533287157 866.2550317777483
23.770954375440642 89.2652834419391 865.801228603134
45.04701803823843 88.72422896374461 866.3699312610482
44.989498751097095 89.15831836163548 866.5383928412083
44.30547422061073 88.79656365086839 867.7614567559013
28.342017734383507 88.82771036511762 869.1114796189912
9.407252437013916 89.0602150456603 870.0696687048601
42.9672766577933 89.34680071144275 870.4321739146961
48.18295089592272 88.55236382763006 869.6009130562405
99.79886660005191 89.2116813485155 870.6420114045382
100.74345526977743 89.35399725121835 873.9765087369942
13.622882252938593 89.45041035380295 875.2505055661805
30.04570727603779 88.6993173740583 876.4271971217928
15.492773722163353 88.93112711848629 877.8908669668273
20.10243944089455 89.08877848702184 880.7372494889503
21.31795706696641 89.47508380766139 882.5032939106144
13.077617700103657 89.13904388840103 886.3737303948458
14.592293428974758 88.73414370383614 885.5168091846073
42.12592943974098 89.38288928737819 887.6531984926529
22.43528144904083 88.65927592140737 896.5679061903619
196.0310971360601 90.44398105119467 553.2838651473494
164.7179080215694 89.88807367628985 553.6380414870531
196.76712377548606 90.49426690202594 555.3977458740724
169.34033306261298 90.28297767684246 556.2298510060411
197.63408767346542 90.28918886315341 556.4473287303409
210.0314639716632 90.02260768039498 556.6223791682293
213.15722632304406 90.33881497358098 556.7211990330093
169.96026282544915 90.18224113254799 558.3090671153124
195.32398822409635 90.26582490396102 558.489514074761
169.5929924819568 90.10001730222743 559.3016823344547
197.63999236086013 89.91866722558926 558.6702827948295
198.95079380584855 90.3162666392341 559.0908492578886
170.68939573494828 89.8436696410837 559.9906032321709
193.8105390015594 89.74312987845416 559.6996699710947
200.90849818524967 89.52756547364349 560.2874673630884
193.8223186906155 89.5260177158131 561.3710199493286
201.24572205156048 90.06089706837935 562.6401807552608
212.07323221151339 90.36337627555807 564.1791396602525
190.1431108242784 89.98434133165632 564.8612866122095
199.8710375857567 90.40679110855032 564.6879002751349
218.6159612934776 90.23498684143834 564.6183339589724
195.50774921530893 90.40983012161001 565.6566377815398
194.8364159095764 89.91460615877125 568.1535467820144
208.11832403096048 89.83142843654124 568.4499663770372
195.87048388278453 90.25292785362973 569.4169032404375
215.8070174044471 89.85448380507201 572.2724942640149
211.1458732681628 90.17070014244153 574.1248856073379
150.61701156967828 90.35256150491287 637.9870436511981
171.81484709206043 90.25097736816386 672.3022978131368
192.5994130823471 89.8941868098637 749.7078148193324
203.33766915481402 90.2590816433997 754.8890078384693
186.71130876672086 90.41404945531315 758.1938154892928
203.4344243705245 90.00594701031812 758.757817492928
201.91805287302753 90.162565382038 759.7794164368692
197.2676013036008 89.63083078466087 762.7512550875673
179.34471845053153 90.39698910957617 768.0207193529976
180.53688929369537 89.95163416053585 768.0703631729818
177.51709271116556 90.39722371870158 769.2632881051184
178.594831153673 90.14325281425222 768.5634384717714
180.2671526683646 89.718037443515 776.3013451485018
180.76621195337512 89.71279287756843 775.7970745186964
180.61749553421947 90.31137876368783 777.1918382374922
180.27874371825618 89.96623829587928 779.2540750741138
20.26154785161056 90.43650581032836 861.8534003515624
37.36838027091284 89.51441334387312 862.7541599977174
5.426862373393086 90.02828783014363 865.0636730268487
37.87665419793065 90.02833727711081 866.2267013375201
52.163662734183156 90.32555597300563 865.8713370357926
29.39515982343847 89.616279902916 866.6532034853218
56.8360535914153 89.50879864148284 867.6835393079484
30.118750813514747 90.3595515194674 868.5985823640463
53.48007192986468 90.09354991125372 868.6302939997552
55.457274327655405 89.86776672789159 869.04040717254
24.358057470796915 90.43724085783286 869.5738129318693
83.39720145177547 90.0713264019283 869.6388575223215
83.47955105086449 90.4641374090667 871.3448658875333
83.55297801302791 89.90679460988751 871.5772619197924
8.972486984112141 89.98786641113593 872.8075757854872
9.700445113750572 89.7603167804201 873.4578179192773
31.33958118399072 89.93133997141177 873.1766516090165
53.40090558967973 90.23137720744354 873.4630503470136
78.17937578599 90.05176471738298 872.8216787226921
79.80214364663749 89.63532538816207 872.7376068517417
80.67051748471178 89.74437908473332 876.3707261600367
93.27462988219817 90.30226407715989 876.3998128961026
16.195636961994627 90.03018143080604 876.9775595878033
36.8645218188767 89.57192358587534 877.8146833077892
38.78351072840947 90.16645835194926 879.120402109332
4.731648391848876 89.94499122880156 880.1676121526111
7.367286394929964 89.52063729129 880.2669456598146
8.907016759419143 89.89995785878786 881.9019638072415
5.979334155954826 90.06387930883281 889.1071938783358
25.173568130068503 90.26008770967213 888.5739482736618
99.67026063686158 90.21233646262748 892.1110720788407
25.462650270664483 89.83520391033841 892.8720733163966
106.27410173744853 91.34350635174593 522.4068383576531
171.55446963213225 90.83472711204215 556.6542952181477
218.06182880753275 91.26506777366238 557.5968593570617
167.61531002673607 91.17462871363621 559.4010946381284
197.66205683319683 90.76931702668477 559.5438156346038
170.45638135144637 90.64873431079326 562.5232905667905
215.70758293604712 91.19707179859142 564.0129210488238
218.87089579948454 90.99404688420842 564.250871101646
196.4904750871059 91.33341025861242 565.1119813058726
214.47444161853915 90.67495011839003 567.2769980661069
214.086049374455 91.3527561186784 568.0134391903753
219.15831255319978 90.51215389051893 568.6846317590517
211.7852253660253 90.61886584393591 569.6318225408725
216.98895409497035 90.64462390524902 570.6765058040786
216.004543716184 91.29043312540247 829.3949678392687
216.88659122874674 90.62198047208499 830.1045722872632
38.23464488601433 90.8233700674577 852.2101027844406
36.531436513547256 90.56631196082971 853.0151304300965
0.3298810262824172 90.52659122780179 859.2172142175656
42.362523331810486 91.00302415275205 863.3686946821703
45.32512642921512 90.84821695841279 862.712104621851
89.67195342464528 90.76931649255023 862.7090256834358
40.55248127075615 91.233924454169 865.8252918612311
41.7606449952618 91.42520421107079 865.8111158101248
52.89807888029171 91.40833830940828 867.9639758940598
56.98991965294598 91.17602539912274 867.7513715569731
5.109529768540257 91.46107642512779 870.5190375457202
57.89759625611875 90.94399497949486 871.2098955727233
21.752995624545342 90.89751356803836 871.904078683975
26.03510321974111 91.3956722730062 873.9901400895814
39.86004739538202 90.8770487998189 874.2774161104871
44.850096140137026 90.78191592211137 874.0243958329908
25.29239365768255 90.75603261294461 875.1293301268641
40.68742087291251 90.86748587920091 874.5270252669009
38.739724156358875 90.66299031758338 875.9719243628025
94.14511068881895 90.80258067828771 875.6930140310701
12.496066887252029 91.20947693694903 876.5224795902327
28.464525971972773 91.4799114626305 877.7121848009141
55.45684771250359 90.69915169395068 880.4279482472164
93.0401820437501 91.19619763780807 880.6643520427075
96.3639543673454 90.51750002182848 881.2065364061292
97.14222246381759 91.29945492690722 881.2540663068369
24.428402759711837 90.72804709301056 882.529210148435
1.5195352421262251 91.35392182324797 883.9550926169076
19.14291141490716 91.0434346623123 883.8646052188325
8.358901697885088 91.0644930499163 885.2953706357274
9.20503543204429 90.87501143939427 885.0380188233294
12.265739734685445 91.07138947393501 885.197862429859
23.877311076907556 91.0714930527704 885.2557612431693
10.065213712111657 91.20677365787779 885.8733303077635
18.25417931058215 90.65961653420491 885.5234176125552
23.461144266464487 90.65484859690713 886.1772262036186
9.718577570797663 91.42140313939078 887.3825255768918
14.84256409743711 90.53873522463887 887.112320195756
14.160332168352827 90.95625090314363 890.6804435935175
26.418942116145264 91.44041292524938 893.3461343615579
25.61903177981635 91.4428759823911 897.3156375546627
91.32088411727746 91.82034514268675 512.358171777362
85.06120622336027 92.14571585158734 513.2570266390065
102.0843367485336 91.54432591039179 516.9208353825801
105.90835450959902 91.60922368918659 522.0888555582377
105.70759000404712 91.95415534328073 523.6346671284102
101.33628894174804 91.66099088038112 524.5630221747579
105.01480585085012 91.87741949153694 525.1663213180356
106.22676849673128 91.87578705364817 527.7464897454927
105.15383550679947 91.92081628170052 528.6153201629547
109.67936009213483 91.64985337642987 529.0687619083182
101.50922900128084 92.26150061805328 529.8656193502106
104.64303878737083 91.8032730762487 529.9275669858677
196.7085594110349 92.28089567839258 556.36898768887
172.26371067822745 92.46084498936847 558.0702811509054
198.38376669721475 91.86676652177141 557.9286428933641
194.9140980027252 92.14351381950425 560.400125701004
199.71183454205777 91.73114462517142 562.3895861282051
198.02048569145074 91.96038814755241 562.5331712626061
212.36568436553875 92.34248383964216 564.0582860108848
212.84665979899017 91.70925762122322 564.3063855964602
217.40904051195704 92.21372558667949 564.2299375094434
203.33600568462546 91.74891935224814 566.1290438602967
199.05304452260515 92.04734779866239 566.7250167754476
198.26461411504692 91.79687590142944 568.8743110589595
213.08517231669563 91.83009570471954 569.2119268246341
216.18312624157508 91.69356001601777 569.192378342627
211.00263036290391 92.34002369019322 569.8193396864835
