VERSION .7
FIELDS x y z
SIZE 8 8 8
TYPE F F F
COUNT 1 1 1
WIDTH 878
HEIGHT 1
VIEWPOINT 0 0 0 1 0 0 0
POINTS 878
DATA ascii
45.16623154809833 66.43112155737983 408.45715890946883
39.58663417352858 66.03606255227794 409.8778589067606
55.12938657292312 66.47862356355016 414.2460084798165
9.875328395488605 66.44036234497065 418.4220396992724
28.437904185423832 66.02713202212254 417.88952832184253
66.29744090530232 66.03176509214326 419.4438850963326
6.4093979160237255 65.82053739502945 419.5386813459299
5.9335366364239785 66.28932074860346 423.82703188555655
38.58595126302222 66.16917793260323 423.6663364726098
29.29795053567573 65.79451479379412 425.12074811439896
34.346615517307285 65.53092324054037 425.2255924837488
26.201013192452198 65.9826682147786 425.67068715527097
15.376953017392657 65.58971735137838 426.8801365433609
37.109403720618836 65.7271106638629 426.8163755839319
29.44633349818376 66.02500157430416 428.0967811253835
1.871870876117804 65.6498364972411 430.5146463120335
14.108301726049525 65.91399597615155 430.6479567441072
27.15852389740713 65.8229772534422 433.04349574118896
28.222922978794628 65.7815899899431 433.8332839120597
0.11390053588349103 66.15322991945945 439.77434231458074
4.616484532571487 65.83591817020667 442.89686841779775
27.707533811006435 65.92076928837045 444.19249662398784
3.691160800586871 66.09846679558301 447.15459982307294
11.459730608028542 65.8536459103999 448.38063869467163
28.534441303460053 66.24332231746386 449.2674409124012
17.948624643309685 65.54661470877416 449.84319158771507
13.746261708307923 65.53935433317223 456.0187409553135
14.322856681137427 65.96553628905687 460.06546727598055
5.7225030768227825 66.18593964425686 472.0203456501287
169.10368124497325 65.51163794422847 484.8768198326097
171.23661627987747 66.2725864884028 488.2887628185982
204.0407243259516 65.50941364777309 496.0649048849391
209.24500307141685 65.7461634999165 500.10417843229965
219.02490987124418 65.91122819526382 503.9366797427621
203.53620888362846 66.15206783971917 505.8632142024928
218.15061170314485 65.69815386085429 506.30668153774536
218.56421853148146 65.7245518930037 506.0373460691274
166.39986018358735 66.28964329939161 509.49830126695855
209.01499025128697 66.34686636248048 514.4090516919608
129.80343794676534 66.31611025914759 515.4404640634683
145.57506244049245 65.66556875818613 515.5619629240197
125.5857663286515 66.1064299041104 517.1506522206266
125.83695221692004 66.03514524785247 520.9398282520268
158.27798326754018 65.79060495089401 521.8684961524882
182.52740321986047 65.90021694037004 523.7423862418332
124.99270122186087 66.49858425531883 525.5847272955782
117.3029681730762 66.31849429031732 527.5004892920581
115.1993788000005 66.44289710693288 529.9066741865897
117.22892597215979 65.8077181689747 529.7033618700463
125.48513997571978 66.29802701700888 531.1430773698195
119.05359889079983 65.67155592832194 533.376238711035
132.99577337596918 66.3421286933011 534.5149842137968
153.63849195196374 65.70273391939214 535.5704361907448
109.99162970389501 65.68837211748767 538.8214436808686
123.48352283887291 66.08314601316708 539.9866471622724
99.40903160041276 66.09096190163864 542.586522645585
111.74446493338188 66.3644987057125 545.1754696218205
108.03696241670698 66.10097438658904 548.4969386425511
155.50040250189653 66.45063795600743 548.2468723421567
208.47343867966464 66.00649100833594 548.1796226565523
102.23770778255081 66.16333187110101 549.1059406016224
144.73066727986486 65.51732781838635 549.2043529788662
149.17456556703365 66.41650257982832 551.6739931329208
150.91113568150217 65.65777820868522 552.8470590689323
210.88069275719624 65.97907770606304 552.6754315262762
99.40936112575511 65.90029732289224 555.6705761256536
127.8971230877827 66.09936960325037 555.8803056051576
91.69395830506586 65.63514179966162 561.1647298316767
150.14326996992096 66.09491819983614 560.8641428558535
152.31997343015337 66.2998243712083 561.427372955617
117.43927017154988 66.15751483180921 562.4150665101856
144.46633185688412 66.01144122860623 564.9289582946019
82.18814094300532 66.30613429439282 567.4138632842204
128.13459229390494 65.90467482803359 571.7037896494277
104.53225680752222 66.28418979533727 573.228610466661
82.54681642605952 65.50680486574154 575.1497569673043
153.61309173034883 65.58561981040991 575.3410459356361
76.03295987501335 66.10514661514136 575.6783123386642
85.65303645927847 65.99105525942502 576.1677529151386
131.53541855597086 66.09748879948225 577.4923530219183
103.28852494987345 65.66657320863895 578.8943531353403
135.08616238542243 66.23431903595483 579.4778182069152
104.05396811200394 65.83692790974021 579.5613165626057
64.18583348630276 65.72909305357354 582.3917168714115
152.66073510442473 66.44242761719899 581.5614864584037
109.17749535786939 65.88354856619674 586.3907909278141
49.51983261551749 65.98958754446186 590.7162392605168
60.913121780601614 65.8757422055 591.6108667630747
110.89355682683436 66.24375741665197 598.1529012160452
62.13109484184358 65.82093175379401 599.1831119674933
55.080247403546295 65.79766561972151 601.2751239028964
49.733870009145576 65.94504503089516 603.274113924682
109.49948949464431 66.38879568406703 602.6258490321625
109.34240305900771 65.80105767164206 603.7745154633017
113.75090495675315 65.8933622288204 604.0633000567676
76.85771739995246 66.45140616628159 605.7300479305868
81.67172658571182 65.88987215221881 606.4449324192533
56.724335508009794 65.80887981883924 607.5912996286797
39.706102911088706 66.27689096608344 608.8489161257925
40.06596960398637 65.93412211287973 611.0245369709272
50.821696569676384 66.2286759567463 615.7403668171467
48.20749836524453 66.37108747903609 618.4784674494639
30.18425662766679 66.189605977568 618.8544835148646
30.73451790733999 65.85321449843106 619.7407133694971
29.77511403464027 66.42578264814487 621.3701028570016
22.62221622126563 66.04939661764804 622.2755034983859
78.13055305806404 66.35038193059474 623.718308369067
32.48910040271464 65.879800704439 624.8274828104963
118.98521113755108 65.78302087639159 624.8940535806196
95.67699511501633 65.65279381986669 627.2916819695533
21.220208813337642 65.95037038129871 628.3795158389038
89.31068839106072 66.1435314790483 628.6893708663249
58.143399425577904 66.1394462500569 632.5515877369727
13.77308531492979 66.09973066600492 633.8504293512812
62.422122018289855 65.76485750181475 633.8680527346429
63.41181054195726 65.88760324334336 635.936420126357
34.56352441392424 66.11055758025611 638.4609259588456
67.88869317704948 65.8348850065841 638.6231897082304
29.081188798242554 66.00510183059478 642.4972222839664
47.21301531395487 66.18887090521166 642.6613530654686
26.67680862104344 66.39774550903286 643.7143568037649
64.23257126142006 66.27231321845898 643.7008415193803
13.930025418558353 66.36883457530352 646.8779366393015
15.732427897236164 65.6654613602306 647.0528305564554
68.3330432321081 65.84734021439708 647.3624469153892
67.48409510389077 66.38176656026603 650.4236815276918
3.7106015152100555 65.58204594128276 650.5416964420791
25.826363761767936 66.08975310722654 652.2999225768008
43.35745389620557 66.414220207818 652.4798210578675
11.78075594207958 66.479505403221 656.0170690871795
43.16642289981393 66.41889477362069 659.0338557817396
57.54833204273596 66.26260949119234 664.9851809279629
67.39353288207401 66.21951003760113 668.6761686420375
18.236253365414726 66.25609666384038 672.125334872917
151.4829527792136 66.2677925822835 673.9107756734421
113.71606833012297 66.40001144559419 674.7857372108639
7.875207743666319 65.95630854528564 676.334771635072
55.67207248101464 66.27276820351203 676.8677468744308
74.05242256126381 66.16881201060909 677.1766567833698
45.254241897655234 66.01769488413942 678.3162191481952
43.22962474826875 65.75021545294415 680.2468727237601
61.740862120517164 65.93825657358933 680.4985908602996
56.18614999015557 66.12324796783352 682.4438754645871
3.1822164189825637 66.28356949784674 682.8906083261409
45.68842888060165 66.4712955329844 684.1606168334345
22.361711980169023 65.64442283430733 685.0336007091362
40.770373722486184 65.93053950835682 687.4721771473238
64.44889773798089 66.22536721540662 687.7048833363253
72.57249059969915 66.42313170357359 688.3903942612563
4.536876237296272 66.41709234747758 691.2001891914217
42.65466937377654 66.28778561785829 690.7472841251293
56.07998007592748 65.70834831867484 697.3513072879816
7.570093111126504 66.46731700663395 704.7489905696061
66.29019632506393 66.39908574897498 708.3147440522961
21.26797981233503 65.98488962420025 709.243379663974
18.468799691435763 65.88552325247942 710.7065996108687
3.591310727328813 65.95165675949028 715.9767951207233
192.01294714590446 67.18559151534518 206.51186496045028
192.91706851133375 66.90062849593161 207.05562003834353
191.5345172864785 67.10729122592774 210.064182910324
217.2314243333317 66.85492289355291 212.5242902813426
200.01664032547706 66.70753439254361 213.7500392182865
193.57412273646435 67.25897837658341 217.5178544248478
179.7039739954105 66.61261899070448 221.33413508996486
181.47240595247965 66.73163256644624 222.64927296041512
180.21312574100148 67.04212051347001 226.35984645844704
182.44612047553557 66.76444599776549 225.93543023749237
192.7879532386879 67.41583599329705 226.22457799729065
197.1913806382059 67.2706350354953 226.12285224569874
200.54678610839633 66.57301857335132 226.5292268802814
188.33656725547655 67.32893599294385 228.830075669373
197.14848821945915 67.36931758256132 231.2190597857917
202.61166172486642 67.04957632930827 230.6006351527961
204.5357036727612 66.98171223248801 232.4293627183512
217.03036702730864 66.65356928569386 232.05391460768843
192.52583826369158 67.02378691824649 232.67856044696947
203.5641818310419 66.73848211067568 237.66464096549186
168.07589654347714 66.6888768591183 239.21766181852567
200.95837728734782 67.26150828525293 239.34318146752287
208.76583671459397 66.55734099240715 240.20957319743206
170.51613419770138 67.29220290276326 242.29421317722506
217.0994403497154 66.98941888677241 241.6370152480845
200.59972987051367 67.42925442551534 244.645038460553
170.4455469094285 67.43936320264595 245.71169343685764
207.32422261622818 66.69204698042452 250.58154054808284
214.70508478099896 66.75356962909146 252.8692651507753
155.89253639202323 67.38588964220817 253.92043094162585
208.7159864817844 66.92933456100658 254.00338126147452
159.14751473525337 67.08933972684973 258.49037415293236
161.91811485016635 66.67291187677176 257.5676455799303
150.8557774494712 67.06078398579304 258.9406661373058
148.83075275660283 67.09793520534376 261.91675483861934
200.54527227096807 67.49337933064001 261.59186392049327
152.51282970445905 66.56165456189137 263.12290117821266
144.46412911098525 67.3497038255004 264.09661883755933
151.93720635861527 67.15200493836709 264.8857445017299
199.28510605064994 67.44365890919204 266.18021952120307
195.9309165567185 67.12465905251126 269.0208271453438
196.03228940390036 66.53175976523363 269.84764459690786
154.84793853913945 66.96606807460387 271.09897094984433
160.9765146004476 67.03561681269002 270.5260529458736
146.83129922403052 67.00425766172728 272.4080073262739
155.0918637894139 66.60632107473721 272.2757092456232
186.0259810899222 66.81865979439914 272.3665306064862
131.83055651438067 67.24634960181163 275.17843193630347
134.79530574403026 66.9845536047213 276.1856662979307
154.3903935638896 66.9453816847079 276.39601979245026
166.61532099297014 66.91559590237097 275.88770593163923
208.94564630866628 67.41433586522577 275.9126051956059
142.07290768949866 67.33512225436634 277.14821577904905
170.267335586692 67.06696314074217 277.21564474095834
183.34195150447937 66.56674545801991 278.3400324515644
139.33917275713821 66.90013063738739 279.88308453578185
187.97875392106187 67.46084238464896 279.9646325671598
141.87274720278822 67.26085884549337 280.6068173076935
177.14073076066347 66.62757100936233 282.99797584761296
191.1507292132727 66.84276485224335 282.8612173171985
126.99697878622062 67.19728466156879 284.2408042897151
181.9603664513757 66.99224573998158 286.21922606553295
118.74371648755599 67.24314577925739 286.86582984940566
173.27465740568175 67.19204075489218 289.2160645389266
121.25956897506731 67.09661449784583 289.9431412907796
154.24500537956456 67.46750368305167 291.2062591518059
161.15161747334915 66.58187257033822 290.5676847181155
151.88120587818915 66.55892138861506 292.6142195892621
138.4978975747214 66.80207226408763 296.1691884039062
156.35662754014248 66.91663650804479 295.8683438296427
118.00850384595141 66.76417676688241 298.9797044227662
167.8835232730777 67.13394148232354 298.73790768193174
144.23579362849054 66.74922392908974 299.5275349680446
141.48006271444254 66.82180426881061 300.8579090332228
122.39485998681519 67.30477000754169 301.9759807514332
162.05328396440362 66.896730375704 302.4483981974589
129.72627982836912 67.25202578549272 305.09572574594307
106.23985241658424 66.57136247534996 305.9802920230616
146.3603083156267 66.74859169084674 306.08821620759954
124.60725917694832 66.56922282020629 307.10436585784043
150.32739326805307 66.93690126503483 308.37226890399234
102.87879019056378 67.29269332632745 309.5658161323231
105.9901599446792 66.6973511027577 311.3309127954195
140.1285705078174 66.95371588076515 314.19911836341635
116.62412098529624 66.58144817370493 316.35129774433665
125.94580486979818 67.22467027036654 316.6859618835022
125.09444574123295 67.33474163515288 318.9889122689354
113.23389842786796 67.17377285794177 321.19548581600765
106.4378842700634 66.89760713293188 322.7762442072433
115.39831917119828 66.72670751423996 322.97002103001586
122.55797576033397 66.86377420447592 322.76659492001744
130.66298199449872 67.14188121052182 322.7030358703418
93.64264863014806 66.7245699671477 325.98321337546076
101.99059600734475 67.43527874915154 327.26508675695527
100.5974963266651 67.11562975795935 327.5350603559752
108.39397084721743 67.22405386869181 327.5259262114774
130.93683998826242 66.53827983643434 328.87510821123055
93.18387866972135 67.24576265693779 330.32023821244036
130.01253174998564 66.59209771362471 329.54292410122747
101.61507839437722 67.20596513579176 331.75000945883056
81.76450394215342 66.98533105046823 333.25514842611943
116.38361275817547 67.2223419356607 336.94283777380986
108.48754265557221 67.12109206661322 338.22687709217627
106.53541103227025 66.73444271256118 339.40760814557126
100.90531914824135 66.65669135790073 340.11565842260705
96.8978903022372 67.18146141331732 341.4036583870697
89.50030265597714 67.44341928344387 343.49615504778245
101.13384039160015 67.01941224585127 349.49999524124667
91.1444592969293 67.1578994783926 354.16079294638126
101.50257178641664 66.6691237440399 357.1050960427478
73.93801525102715 66.72147082247791 359.3468263588709
65.21789429097771 66.7658771016499 366.468943553538
73.51770077460509 66.9146964803449 369.0641946760286
86.60060972172761 67.39052119152129 371.0404082836206
68.5505740113319 66.62151021855557 372.3122054078786
67.97531049952207 66.73490676526863 373.1099244802189
71.62481628973052 66.51491339074093 372.5407364441685
44.29184656176335 67.17259424689412 382.7219977049407
57.613131182834934 67.12770432110933 383.006633769114
45.8492594752324 66.94745538866677 385.0818055629284
57.60015185701633 66.78474072329297 387.29970065014874
70.77220650955628 67.47682159932228 386.95261799007
69.4687492316186 66.98542770490818 389.4066640740973
67.03961525899668 66.95344824613497 390.5478104464933
58.76031226012261 67.16688415025675 393.0487994352344
45.9071911197083 66.56009314168098 395.16995123193516
45.701749651967965 67.35695995435673 396.77558805939856
67.46915930989788 66.92292146992469 398.85773278656956
47.37238602632301 67.29257181693977 407.0379643574716
1.9384068882887178 66.73419385766611 407.6763578339738
22.215049035183547 66.80791772137061 408.31619900906446
56.193101578633275 66.55051709308887 407.89628141037554
24.822866466346017 66.7371335093742 409.79373168330824
25.285966781571627 66.55431264561777 410.9196992417579
1.9332908502815074 67.4976291472823 414.5398208351982
33.12539480563798 66.66502245820953 414.9735666489082
14.811551810395601 66.57731628902579 415.94044968619147
6.438262800615834 66.7869272740826 416.93457235842254
20.419178920757272 66.63857063871885 416.65383666167764
31.0563378765622 66.96655757243639 416.62305490511517
12.257457231604675 66.81127991564199 418.4594083659159
26.476917607574194 67.41121807259016 417.9297767824478
28.63907188478128 67.23317582128328 418.38970632137006
40.407087382707395 67.3690920606508 418.3873985394591
48.96122956556391 67.35282868454267 419.41864155628525
45.00039080270944 67.13355067811507 420.5107202341861
2.733890584211877 67.09578399848135 423.17742382052666
25.798340439459754 66.73518663220756 423.4807191202073
1.676691781560727 67.45647166717453 423.53508790832745
15.828915302933506 66.78675504209278 424.4146486287352
21.03086740401435 66.7679170124254 424.5503559649939
39.61141477904855 67.10624189321621 431.3635165743323
16.00310134296427 66.68039943938099 431.5351923256404
13.813643406616237 66.90962542328718 433.2950327891794
2.071797595042801 66.70101271062632 434.2746710759861
38.768393040115335 67.32588437142275 434.14298611002715
28.46760620810825 67.36418708247521 440.5669085783017
32.17027088977962 66.5087502139518 444.8566683437108
26.072662983658415 67.14864554760123 447.5618727190078
6.242701683241338 67.25933158572306 449.28166162614974
16.449564295243583 67.23507253082832 453.09502305981374
30.33893852382508 66.59011129787312 454.1648286873349
3.9757660472722236 67.48924664038108 463.1615451079718
206.7153927398917 67.125333334188 485.6043059684433
213.4227742481275 66.6900820490236 488.259713454307
168.05160107045046 66.51410453212429 490.8306488992813
169.92745651574566 67.37642552711107 492.54008410892715
147.25103394186624 67.289494527521 495.0403144579539
175.44036550158086 66.84924179566437 500.06804657419036
177.9054527941574 67.09449809519316 500.4152296168839
165.11962918596964 66.67046661556118 501.2629351493472
177.74938247330618 66.90567104162005 500.6838286765056
172.29159306927357 67.19477436167236 509.6068550142585
174.93057856112065 67.28857418626355 511.46931634398805
159.02677584697233 66.69067727411378 513.7008143613075
136.78631581743662 66.81872887788842 514.543593000325
174.25975207011228 67.14872067855627 515.3618921008419
168.3913291468091 66.69812697346242 517.37628981205
127.38372580445056 66.57455048481184 521.2824895405097
172.3846179242906 66.67585518601581 521.0064610594825
136.40612908233456 67.04226374287002 521.807835575378
149.79567153841484 67.28180892754557 526.2546515419798
120.26604078868459 67.13252909081872 527.978041896132
128.32793966270685 67.11296073926344 528.0074376428945
138.58043145914496 67.48572903769369 529.2688604315547
132.69738249505917 66.72014112900591 531.6841804047207
116.38863616485641 67.49575076031462 534.0675185539737
205.45554258789187 66.60160790993753 540.6016432386202
117.60350005061942 67.01112464398717 542.2303962221557
171.16616785608335 67.1885211320983 542.1716823809377
98.92250309002716 66.8595078976285 543.4451389329485
99.22711138679708 67.27028253169796 543.6034960962758
117.46396236039513 67.21288445203245 548.8461963521542
153.05998026527394 66.84856453927823 550.4652969716242
159.47365692428647 67.03982670574045 551.7029343841091
132.4290202657545 66.6573877536302 556.1722920770449
122.85304054963477 66.67816107659937 559.0611170385181
156.09685773977938 66.73396265905538 561.225312217698
167.00784179947667 66.54346467177531 561.0431148952624
81.83611632495847 66.84937539567319 561.5622023647924
118.9261848951724 67.05560085229378 561.960034056517
112.64173014108833 67.18648090233245 563.2193259804808
123.62566875925917 66.73457261557594 563.9494340980401
86.34422137327812 67.02549900764501 564.8647666655511
99.0763684743005 66.99141930452305 566.5307212964325
137.10648918119438 67.28455773347339 568.1763989191743
82.36560585395533 66.6271527190794 570.4509263203104
82.92564739883794 67.05226644444926 570.2480053120264
81.54834133346992 66.55637350119595 571.3687498639054
152.9503838062438 67.18943169015537 570.5757264711149
161.67634135551117 66.87758346701573 572.3761196504286
152.2882554227012 67.3248244201364 573.4036659755017
93.34052086234495 66.84292593070414 573.7918798339291
94.56440183618972 66.7234353023265 574.246113656167
97.98792965115894 67.23453246563372 573.8097681649828
108.13500802894171 67.19189302182221 575.1754320257664
115.89663093872582 67.41056000409354 577.8076508831538
127.50406767153942 66.56431805243136 577.718110033881
132.89035421759095 67.49939614209542 579.2547435668256
78.7879912303335 67.0825001423793 583.3629340277188
63.00237117425405 66.8003480624922 583.7991414623057
73.76265225542862 67.21077290564185 583.6042515725796
88.56747739841128 66.97996545309903 584.4543703076705
109.28919065792586 66.97955588260979 586.4470241113751
113.77836529117845 67.24995398099196 587.6387220418517
66.09035559621988 67.00676950742684 590.8451790108309
159.81549804225685 67.10496189531254 592.7120950902365
59.53608480414911 66.65439521980286 593.5693778478245
63.10427187997085 67.10643096854629 596.0907638349701
104.35847302471223 66.93617681323823 597.212933888801
154.46474822942585 67.38738706685851 597.696280907158
67.20790646051614 67.20828272758676 600.0380136666216
65.99255354654228 66.79303924949119 608.2237345443857
125.56121176162905 67.4564999729196 607.9463792992153
62.54442789591887 67.01063849812886 611.5168585086096
30.51564664540745 67.09793956315818 613.0486220608447
113.74827786909573 66.57397491874087 612.6941492263484
28.428500019880424 66.9089228265459 614.2683271521865
78.13213255120202 66.70422013330487 614.3763918514668
43.901892546886 67.45309575671774 616.3122726979276
122.23904424791318 67.07081928893379 616.1197321184649
31.518435771612012 66.89350970213111 618.9153367265188
31.91249218762385 66.59909097019478 622.4112125735699
40.13552171781076 67.24986435906109 622.0120563044295
14.092106937264335 66.8746285479766 623.3776647584154
75.31605974313257 67.27238736060328 623.3001694510931
77.51803710045976 67.3157916638799 623.8957230587026
28.976742611690057 67.48310634527853 625.2805325426712
93.84906031772803 67.22042115788452 624.976517952776
75.04855914552002 67.15721367304035 625.5216300538327
92.16234751086044 67.10494020132491 627.4137278588448
71.58494301623034 67.44359339314724 628.1854382625914
27.4726786641337 67.19826945187712 629.1633368834719
50.35995398517659 67.03325139164868 630.0520920683946
41.153936341961696 66.98825350364393 630.9171312142879
73.65799487932489 66.51607359622388 631.3166358144133
28.552371735406815 67.00911527458203 631.7511164902759
76.87275965010271 66.76210188801552 631.745648188487
41.732384644711544 67.4286404467048 633.3946336654901
41.285890608636166 66.99512814886958 636.3943195566599
66.2666090876995 66.67955568433572 638.0139274366504
26.8569629380467 67.07024597486799 639.283596693437
43.896253501186806 67.45212488680073 639.0417892153621
77.18714368585505 67.4997530988514 639.3493540793745
151.50368555190425 67.27432486160016 638.960309639166
21.72691999400018 66.98248808529233 640.0490362386697
122.18651788975855 66.94634256766452 640.2896250490201
24.44580207760308 67.45959340957407 641.5083235860129
89.69474370709113 66.59664573240144 641.8688254587446
11.815666649154593 66.52330749231616 643.3131956395389
85.3422536173652 66.52222162636696 643.7580133809797
5.773736802008997 67.00526269101685 645.2961234550166
27.039805649846002 67.01132376014569 645.1928055444232
41.229576433202396 67.35669048438781 645.1986908158656
82.71409007690465 67.05292937518705 645.1580665882836
108.16905586970083 66.67738526181012 645.0442938204096
107.9873478605488 67.41907507778849 650.8579582675732
4.295884868097656 67.38013022045203 653.8387766180281
59.895063306211185 67.19327244139083 653.8075788945664
51.75880865062178 67.39577284994687 654.7259451462968
67.97223486056744 67.34095756902877 655.3308278714629
3.557509678933463 66.84842221570759 658.7737280337925
47.78276941841993 66.82593255941951 659.0746012914261
84.02872203061983 67.22088402596243 658.8863794494943
34.71648508845296 66.60912262791317 660.7281069926364
67.1878794270363 66.85162105853166 663.4796708094734
66.58799533624273 66.65914081551065 664.322721349922
113.91029912798227 66.88921592966005 663.7029587402855
23.761496246055454 67.45696488363082 668.0960250795827
10.470362334672426 66.54455624542939 668.5725213878519
37.19649074758333 67.04943222942732 668.6810123995645
64.33407246557306 67.49855611111461 671.3950647200165
5.9806955940922295 66.94823873105338 678.347729352545
22.491051071666284 66.53955400506592 678.968901830215
19.78200427249899 66.57312863260456 684.5077122537288
23.463453472284016 66.83032544047546 684.8600167613915
47.411392625773594 67.3362894688286 685.8339273764703
31.541802447277497 67.06834056626433 686.7060909465579
2.5125134082249576 67.02585600052542 695.9868407049519
22.023676328460184 67.00924449106665 696.7299132852003
28.01103084123369 66.85377329702433 697.5931601090609
38.91036972500186 67.32374755591368 698.2920008944787
1.6324360872875454 67.40013981214415 700.4957076936579
115.60056888082619 66.8950537070828 699.6619086171959
44.08174201495991 66.77858429214142 700.5312882616927
7.441710065844958 67.35872007774044 703.8639656023092
8.75520752281367 66.64397872334995 704.9019714743633
10.210035963689457 66.97818439829267 705.2091715121381
27.780907977782995 67.07285064760956 713.8309727494466
42.32907433823746 66.64798973291089 713.5203779185966
30.607333902734442 66.75068905256042 721.2948808683784
14.63216068404047 66.84564409235335 723.1517583244623
6.492979421509739 66.54638534886539 735.8655833072946
196.28809483555094 67.68736945383901 204.2005230437164
195.75540920416657 68.09521537747756 208.5534552367474
181.38467280600088 68.2955077874002 222.33664273086546
196.36058038627104 68.22442739524905 221.9381543962086
190.93611436748574 67.80482463889099 224.97293872883318
170.91263658333725 67.67776136987375 238.14687281712656
198.07344418644985 67.67615463689859 238.36557812354
217.67625295845002 68.09557905908876 238.39696419316505
176.4860044232924 68.4897267662939 238.95603287651352
204.72792387332427 68.23392057900377 241.71507859754584
192.2167240255938 67.87727175637087 244.16031005254226
205.888438156173 68.32407231682035 245.0917933191197
206.2243476812862 68.13074835774779 247.11905543208965
163.92679233135843 68.11519286834792 248.33067959285077
179.46190311103473 67.76402377034044 248.73845886847013
204.48849992036426 68.48495204106165 249.90143538219922
182.91745720987575 67.95998655949717 250.64276328707706
167.84267328457963 68.24195441260348 252.3148307735151
176.9703220339455 67.83276412103463 254.27439387972007
218.72106045202128 67.94805476948434 254.06726057659935
162.1774992425811 68.05045861289818 256.92209558161875
205.67930013857415 67.52194639293845 258.4351795887926
181.46914770036665 67.80803713026998 258.55540553044386
192.9807881910942 68.16305199966601 258.82160909479273
180.4462193777425 68.23009517101374 261.67789513241416
213.2425556680786 68.11856976160244 261.71980755293845
159.27804727941577 67.86838781096306 266.2491371472496
199.3220263195149 67.54765574809315 269.49985529471803
190.02412549649551 68.12536037329214 270.23647994815394
178.10910099586022 67.87789911022367 271.3877316454493
170.3827616235093 68.26474084448445 272.0821868818884
203.3771775460748 67.74340999497274 273.68100921316363
186.22213941920376 67.84173698517682 275.66621833677465
213.97325001774917 68.47058265413466 275.8395894181355
176.70299934376578 67.7490501811616 278.24679179882537
181.68930539282434 67.69385134754614 279.3048564207565
169.82254813456242 67.86204447896725 282.3560850080578
119.35755181177431 68.29157804000609 286.9960410620652
131.90007250382456 68.49630340282404 287.89772056704686
167.04424164374936 67.61617525539353 289.55875494097603
125.94706871865019 67.55188050531984 290.80389267527835
144.1247350165978 68.16818625367277 292.5860843981878
136.0363920179269 68.46335801955706 294.3236589521229
113.8574458526065 67.94183227693992 295.8242382525561
130.45733834343963 67.9197050292246 297.24494574618564
141.3475840912012 67.62414332532883 297.26089325860556
144.29541482663222 67.91291732800433 298.26702256112503
147.7343408861132 67.93774891400722 298.00410077571496
134.87365314082012 68.03693929845379 301.1456433403125
97.05455855136495 68.09431768737475 309.7509854516686
135.26942662983458 67.75641177749421 316.08294846024233
135.80210904449717 67.65768313095838 316.45935776258426
116.23939951258356 68.13884090457064 317.0023571084235
91.219409445267 67.5534376777718 319.6220957592876
147.70263762605987 67.83476874206079 321.9340816885369
89.78019392940264 68.24827757488347 325.25891654373635
103.89714854484342 68.1478093894528 325.3346625581647
99.88881163572674 68.04782907468787 331.0672408178426
123.71089614505944 67.53297317008591 330.700451908961
101.1798578340599 67.93897493757495 338.2198550948829
87.49501311116893 67.62416193077559 340.614124003034
80.45101211057559 67.51209020130533 343.43454866243104
89.5061618684064 67.62595158275306 344.8721714436284
91.38873750103815 68.35241329798278 346.813345356759
78.15102221583889 67.62413907210626 353.4354911009901
85.7884166400352 68.33864987636225 352.66319432562943
86.76534729524886 68.00815112705595 355.8424418848856
95.79338611180067 68.39989235943706 356.1748506579999
58.69176463934858 68.28636033343751 358.23268918423935
85.57412616609855 68.20449397744278 359.24823208724945
62.21890301154898 67.70796642913973 364.38234883089984
93.97805001312564 67.7431641296734 363.5133213246969
57.519247283863734 67.89265578607825 365.45410778801386
91.21471299583878 67.71353031432855 365.4148225092093
52.81353920555652 68.05910679220031 366.73675944106645
62.10745369697354 68.03123173633647 368.1498117613862
78.83392997338963 68.1844178773875 370.6132392927249
72.23301312702183 68.42154011033027 375.4419025843593
88.08143053158011 67.99600948851386 376.8893488390237
72.22844137828335 67.80573071465844 378.137659729594
51.440524937445815 68.22364638420886 380.60575097672324
76.94526046163259 68.28042916422054 384.1536960751521
69.48400777712756 68.09264426465427 385.6714144182892
62.9688719092042 68.21129277896038 387.1129235945822
74.94196967601103 67.93245106714389 388.66971199254067
53.513848269302954 67.57093735824496 391.8422220596458
67.2947393148978 68.25973625632886 391.7153232890125
48.20784090325679 68.34994465521211 393.4268691619514
55.492319786647094 68.46515178286893 393.31286346719895
60.53193107456364 67.72921663380852 392.6427254316316
47.50002895430062 67.79477455943837 396.65214546736007
69.92675187473414 67.55443159520429 396.7386984845302
34.70308856364658 68.13022093849023 397.67871069421034
50.7581163085234 67.64162370214648 397.8494232900182
34.88190937030417 68.39390120658462 403.10882239758934
53.775247976388556 67.81484702320549 403.58847326228096
31.3346574400847 68.48303789235995 405.05881526381
33.02491654639416 68.10883860206998 411.53001625890903
47.114682063393936 68.0922393323834 413.37651402910444
1.9334220412936811 67.51632772012263 417.67068398323823
17.333380514877966 68.17438913147996 424.2837673345953
11.377484783901458 68.34704129709128 424.88446439569464
38.85388410907126 68.21121093265486 426.11148672529214
40.056097192540264 67.54332063425952 426.4257234668296
46.51079610078593 67.55313688604505 425.98319330326365
3.06383599442465 67.60792856628768 429.47575572740527
16.53571915689287 68.33327996747605 431.07874719174424
25.534129618044 68.21117074888103 430.79849995607685
40.73381765740194 67.81932310467164 441.96812126284243
9.159231993252366 67.92849245630467 450.7262799500014
6.367865368678577 67.61862201091223 460.1454141585657
9.058741890048633 68.4553181149153 460.8414906215758
15.572214004639957 68.18896191231546 469.4702645143977
0.06325928657627666 67.78793825471182 470.80924332919017
207.64559299722808 67.69511899357849 477.77708161193294
213.06252562203747 68.01881380033045 491.94832605295153
204.1668172944581 67.94396961478671 499.182370591149
215.68697754680795 67.54569831629874 498.7798042002566
218.82589281540172 67.66357881713841 501.338358970892
144.40765583985083 68.33779587428376 505.29385636545896
200.78386976165936 68.17882983775623 504.65260215585073
202.01440983792216 67.57545881861712 504.8836826652097
150.05336700165256 68.27442282683374 506.55522960221606
205.61428595776164 67.83426730741904 506.65294842126104
135.09804571604235 68.35687446393473 510.2687429252054
169.15310238362 67.66472967120137 511.8932691652699
159.27157464279222 68.19398004030188 515.0540230308013
167.49460651167936 67.97497019235817 515.8660051665062
211.3336721106818 67.76405564961445 518.0204121404993
217.30428932233562 68.23979966193468 518.709200716263
117.31259222092594 67.79022612756886 519.8221142844668
136.98496727809507 68.42402473605752 520.3483243343774
133.9606932249543 67.59514171484068 520.5384585826422
136.02687022543782 67.94046361216039 522.1001181246988
147.0493862040188 67.7506009299885 526.8002067635648
142.3740165324332 68.1290389248348 528.6679616567029
145.27324419757576 68.39728411812503 532.1349814178456
142.8628644535638 67.81806209281189 535.7515457352578
207.267630261535 68.21560186271306 535.8310761232945
112.16884539367491 68.32358331686707 538.9078323803249
130.42761457151477 67.56467687744542 538.576929885532
160.58109671153895 67.84907180952479 539.1658275907886
168.36842350825563 67.70835400157429 541.2625745413712
96.56168378897961 67.7193944674185 544.1550961831455
175.3484758994056 68.21152025578081 543.6377109241915
135.0584004965802 68.38535771612412 544.8666172128775
161.816599627394 68.31746028811618 548.050154545174
93.4449986917542 68.23010372475527 551.4205832971777
136.84210031960964 68.12746795826769 552.9398586832108
83.65687811023643 68.37612859746046 557.4329064005849
202.76828893033982 67.58971266580326 558.1226243327735
204.7457969137981 67.8727155548321 558.9311037643737
122.6947298187023 68.10818654842416 561.3072835716436
166.9495124105739 68.33356466611154 562.9615124099486
108.27288562619997 68.10340701261428 563.6374467309267
138.4896632543984 67.62926341445822 564.4088958497595
118.09904921650596 67.75962281413338 564.6392490088657
89.06511241796818 68.05864680545206 565.9730006267732
93.00147218983236 68.35104517221502 565.9592103417274
110.28671268325171 68.4851566961639 566.0807668507296
169.20357311123877 67.58399591304645 569.4055405769325
90.86933622515829 68.08269492469388 571.4230305846779
123.04781481967161 68.32294078116603 570.6737715587369
129.25886080859382 68.47344604771195 571.3817341124671
149.38721968219141 68.44122060249131 573.4588854646745
88.83917508732348 67.82657326108999 574.166681960582
106.19862924857391 68.06675677522351 575.6318603586275
122.9927474605222 67.76857388806516 576.1461833811095
129.61545609087605 67.8377793816808 575.9290688621668
105.21593401017965 67.71242210053161 577.3779464102881
70.98451280537336 67.5055041147392 578.9922638933542
65.56525097483502 68.3442877521685 588.1560561576671
75.54525884562759 68.43521994790343 589.7946706673793
77.81184039645117 67.63704855731349 590.7470720479704
72.60501502682324 68.28222534634159 592.2565580659337
119.75475009537088 68.05405420008199 596.2576205959509
124.85536834574587 68.08735354617235 595.8067457718853
52.33448582659714 68.15855256136314 596.7222184987196
92.81983614750128 68.12493206131458 596.681983520674
57.060173476114564 68.247424056905 598.1630280047218
96.86361109770911 68.3850673386986 600.5839751259911
64.9896505511341 67.66720834955188 602.1558635408197
70.34403914575311 68.47053200996281 601.527169587792
126.39786519776139 67.52071182839263 602.1137179577369
151.7919835313346 67.7583277932452 602.294955126759
118.61683951772234 67.70918913253563 603.8333205065039
57.12853827308715 67.60211255579291 605.2607623014447
93.33480553916738 67.79340441057418 605.8913623234566
90.09629922723552 68.45356445033215 609.8163597363666
65.84269142189211 67.7307286520406 611.7217440654615
39.296780106891305 68.0774345560417 613.7730966664997
93.72481899392959 68.12905513841078 614.7994368440155
85.81237695176466 68.1479968030927 615.6192111725852
109.47200701622315 67.97726323226506 618.7525150581666
30.509113526369962 67.60793041678566 622.031445724406
70.60384772145876 68.2153465290117 623.2828071802144
27.406461318604567 68.20277478679293 625.2152428881913
55.54143982063341 67.87701516719235 624.567878624171
146.28577762958386 67.6137417474787 626.2369662137627
37.414654214123985 68.1275748330124 627.3119014119787
82.86926066180442 68.45270017282165 626.5622654047684
77.18169489085196 68.17123388701644 628.7746468167915
68.73556367182057 67.6716920568939 630.112228996738
91.13537145649131 67.82854233848194 630.4432385564309
54.976068998206294 67.84936441337604 630.6113956935886
113.17103891727977 68.05805383920348 634.3948230548262
152.1281443413342 68.00140767392686 634.6489940812718
19.50361830661633 68.10060508212473 635.8925805279233
81.34049435457584 67.93041363825618 636.3418695149869
63.338447817807186 68.48730950074959 637.5701399350561
61.770529210822986 68.31172641315409 638.9690082580605
48.31652559036637 67.8317754324754 642.2225866535802
49.916171159304184 68.22071344640375 642.5464125258205
69.19353120215807 68.13093116457995 645.1568440868432
49.06984791827413 68.28734998508753 646.0792514783401
68.71268567285605 68.41955248016744 645.8853917911399
49.05528355983076 67.77638626796761 647.0028088881239
26.95562620651099 67.72572293747942 649.682405175858
27.259215690393823 68.46859391830198 650.6709066553572
60.184598675702034 68.38943831886046 650.6704103140872
15.989937738509482 67.52864079663188 653.2483312779412
11.152288052391777 67.6846114802727 658.181181263695
38.52103511397389 67.75844960628297 658.4655912243344
42.38762080126046 67.99546392508026 660.7081811060427
51.864412413483876 68.4352039419794 663.6818633039193
48.77486456202166 68.24376831723106 665.2037275372998
46.62328670184643 67.95652909910721 670.2832437697238
84.54153589381768 67.7590727109059 673.6215303700293
60.379268954739054 68.00102317868375 675.4128167952251
42.52270637200144 68.20978097234375 677.5415796438903
32.4122279610722 67.95962895355481 681.3117830057519
126.38217790524178 67.73873429671109 685.2679902506146
4.8912062201272795 67.95932125717329 685.897767343317
2.8233757656178224 68.4143192001827 688.3938921248867
28.75208504621591 68.30565010177119 690.4302842204187
119.13374606071625 67.95669499021704 690.9823520906931
44.93104013039202 68.47959028853622 692.206943378881
8.247768233843317 67.68363857037829 693.2317049030728
24.714781970097697 68.33089254722857 693.4746629168657
6.368092257726564 68.15171507815764 694.3624942643436
86.42670170853418 67.53575850602546 695.0708550605813
90.94550879820635 68.07759020980673 700.0522460298895
84.08380094888518 67.56569380412215 701.9992949781492
8.97947538745117 67.55038390008632 703.2794005759084
30.88015139137897 68.05499398638091 705.3693987969011
37.477118377490314 68.16361992035253 707.3348196638277
5.981819304269264 68.32804470753392 718.3974727561351
1.7439309028210626 67.90209107008847 718.715995697172
47.687131665684 68.31621537736925 720.487331426866
15.616873833226974 67.88455509068959 734.9152052773726
17.940644643137155 68.31094850020479 752.5534208488561
193.53296617306282 69.11074371356965 198.10563267956994
195.2775512090889 68.6185343535027 205.47685479445644
211.14909160939655 69.3004609678851 210.87705852134073
196.0339554775374 69.39081600956821 211.55550433650268
193.82064841569235 68.99272585712212 213.2583143141133
193.31718018247108 69.41569244505708 213.59309616191456
211.16003621687454 69.08970538302634 215.9117237885085
200.97433976452973 69.25983198004373 223.73045281651227
202.66403595455085 69.17978313226335 226.20188494636741
216.95576363967916 69.10547531195071 227.7043043439273
179.69714328396617 69.18569812942192 234.67778742506104
196.30584856409726 69.28468295600169 234.66739808765027
206.60553674381117 68.58964744422671 239.37131074094324
217.6747408029959 68.5136699024979 240.47874272819843
175.32652215953775 68.93085311640756 242.73825914674856
199.39154796794716 69.21942219465107 242.73482919909932
214.45166865432074 68.73447845954638 242.71459606342185
196.209485059876 68.75987618708011 244.80018195669243
188.8083551016718 68.7313371443362 249.3483464192856
216.14043104334706 69.46103980490639 249.38329763058533
216.6200461710617 68.8858712324118 250.1984518343554
181.17566780351325 69.19674728352392 252.05000086594708
161.07209414013445 69.41836480546755 256.4351086167749
203.11986798067554 69.07943318304937 255.97053843170195
200.58824132420548 68.9083881546424 258.7610476758345
160.031736904007 69.27952124693851 260.24673927064583
186.5941783410874 69.23123530680682 263.358995690343
192.75115560016013 68.52987722647917 268.3991548984917
179.1345815219794 69.38386266585506 270.89728907428264
171.64266232267644 68.9282495576665 271.93705245651523
216.6412313675768 69.0065806446614 274.19869086336314
165.01627725137746 69.00631553054212 278.1464825837713
199.62087405592067 68.51966064823128 278.62048937123035
168.24972771295458 68.60590746415649 281.1029667420452
147.1098646098516 69.2781817790717 281.79204157839285
186.66305023535776 69.41474448606597 281.6515834773226
204.81303374814345 69.12011001610406 282.0492332947223
210.21508525143346 68.7306220171273 282.797454390895
147.49418190080812 68.51205588455872 283.68159969991797
154.23309122659833 69.09414042069605 283.830496847825
193.5114540138004 68.61769485880416 284.11363040032273
202.3575636460239 69.33860113815851 285.09994951331413
124.43319042341169 69.05788192217923 285.5284600280086
184.18922354498457 68.54408187154624 285.87107509335357
161.86510290813456 68.55062019704481 286.6266702140115
136.90864302722787 69.0477929910313 291.0136062487644
128.35046197393666 68.62468744849065 293.2282116163905
128.9636202941406 69.28747892464155 293.21549907850425
133.60754643437434 69.35911002170486 293.80509614063953
161.2407760576688 69.193338120294 294.4128424635148
180.61637011941897 69.21156154424787 297.16361959500637
125.80869561428749 69.45417761872523 298.0891066577259
128.08655454231067 68.70390417602572 298.39462705307096
143.23415803253107 69.28487939348675 303.4620397408695
160.44286961501123 68.92158276520996 304.45721568797677
153.69908161036824 69.01272135100972 305.62190660692056
148.1190287043748 68.55530632636078 307.0797196355273
150.89770823024875 69.4569221138052 309.39752231701857
124.77709250120087 69.07676852292165 312.158556665685
98.46703202838397 69.03360835137508 316.21045741540615
110.25843891957811 68.92029196462792 315.64700887013015
126.16884030998881 68.80735951980772 316.12627497328185
120.2872394057594 68.76019995294533 317.0189722108962
120.54808918117045 69.13692574194253 317.8244575798081
143.24306024490033 69.07582506303547 320.36064949727296
90.63918109409764 69.41883384936746 321.71896143732647
137.9168882319077 69.37666115212323 322.45502619205183
132.2187210854898 68.98579987839328 323.6684722166238
104.68495918863088 68.68488158170398 327.04076592554577
88.00759960341382 69.08332185261736 330.0059621079614
129.74265313414384 68.5331109778107 329.7848649259219
113.45949152765168 68.99840131911374 335.8554035859568
94.22806225140855 69.31777952636581 336.9375129707513
100.29035846924896 68.71716219478552 340.74729709719014
88.29063397090971 68.5031447830714 342.3182013147904
110.14017728768906 68.7473641503687 344.90238059105474
99.4661243014781 68.8616296691586 347.48164458112177
97.32072499584685 68.6103186215391 348.135178538153
104.81968939907567 68.66871952638023 347.8115874087952
79.41879030656116 68.5007030184968 349.6078490360422
81.51611548765112 68.53681752100138 355.14749685410493
63.19178373082575 69.38153196355621 356.70263890665234
70.05105159331731 69.10337482844434 356.8628420848694
65.41671674031059 68.81860062931915 357.6745375945075
69.95543386172662 68.81437772022912 358.93228746317595
92.70694473511416 68.62883558532745 358.7297857594208
69.98678750420783 68.73166425643129 360.31595375324673
93.05764958364927 69.45586314962783 360.3693717422843
108.47657630482755 68.50022291778276 359.7918610672331
89.06242539659769 69.29846391781263 362.04744628577504
89.33561733372201 68.6960433693083 368.3997248140668
66.9861935250612 69.15867662976004 372.0031937022465
92.98228705633926 69.41173579448031 371.88485317868486
60.108557554308106 69.39618612064703 379.9454319918805
87.56042887642106 69.26127576822802 380.9714542978317
65.15597469017162 69.066353792442 382.48077419174984
63.86921560652385 68.99956811950784 385.98505758763037
81.65343676741446 68.74549380821213 385.917295599471
65.67011739005923 68.5290268792914 391.3844427934694
56.798199321331545 68.63931249621669 393.65802027770684
63.20457665507991 69.33174990007755 394.3493392476026
86.47530967755988 68.53458640350074 399.7521477370341
33.82455288749555 69.25331294891367 403.23496747002685
58.36182573542066 68.81729898414676 403.06033158118805
37.66693024643597 68.67144758046902 404.33948435946496
66.2502111842442 69.21177820605932 406.3779800024354
53.93530308203676 68.77763270583476 408.6131390813863
48.17980876346176 68.85034454470699 409.61955775813266
22.990722623115666 69.18775619637859 410.601724108618
58.99602348617079 68.73634477294489 412.468607283681
41.705964290056244 68.69985229311547 413.61753577840847
34.55542428113355 68.86458452208572 415.2506759111877
47.726646576746084 68.52244703189005 415.8232556038666
47.19494916474673 68.50187420633782 416.71131974067407
28.520022408758006 69.41476004849103 418.86743614861876
31.995003703179403 68.97675757770158 418.51154925977744
17.759061878414727 69.21815321581519 420.11430328406686
36.33066229644736 68.59805420078376 420.1041532033037
10.127314403208159 69.43981377473274 422.74671860380425
18.699211997622804 68.70144670629487 423.7729998807646
4.603207666917385 69.36860637156862 425.02088413032783
9.994644946483193 69.49059595171894 425.01560817785975
10.283663512287061 69.36949834890797 426.04933072123833
45.72750159394864 68.9103828788975 429.13820671664473
2.439166914381928 68.69531740823665 430.4938693678248
28.61968093516689 68.65237949922454 430.90288277829495
36.765969542219096 69.36211469679549 433.2377203223839
15.78775427312824 69.37233307621604 433.97635388526044
4.816733703835612 68.63300675439294 435.2281544230947
17.613453216196703 68.64975289298383 434.99898709029986
37.3752138248385 69.39716116566701 438.4040218888006
40.36687123970612 69.21797106493138 438.246888170199
19.543906528812926 68.58637326848466 438.5324977528387
27.68627491999128 68.53622967138232 440.1946643149823
30.42214660588554 69.04085464510044 441.9523856890875
16.644225144657252 69.25583597260815 444.0221214408752
19.519105307275034 68.72362696388332 443.853784942348
-0.003115473345041697 69.08250920204182 445.2766589926977
36.77340902595276 69.07329283963202 445.86046863292955
-0.09759889048524395 68.87255478404633 448.7953517175113
25.9625501899384 69.43499472592306 448.557392224034
26.11896151835767 68.79176237520979 451.08377046075344
27.911379302346294 69.34908562247865 452.8546543144899
31.05147369851701 68.93815556642093 452.56526924740103
2.6362087758944894 69.26831909794518 454.25133601700713
17.36510829322981 69.00362404729903 453.76534265785375
27.19093235097319 69.13249084674669 455.5993963918298
1.576214358169921 69.03281810002146 466.06602401402694
209.00381886659912 69.1259419342844 484.1460040695566
171.53931845740183 69.12770267941927 496.35605052863093
179.32844980411917 69.0527317163364 500.8418273554132
183.77198053949868 69.46814974270701 501.6892430066815
161.99943987945582 68.96274681590664 507.7983338114172
173.15412398701258 69.43188797643487 507.52205187060247
138.82099138175766 68.82361981859657 509.9970807130361
174.32320147710504 68.75421268546513 509.5435963708909
160.5616106354067 68.82611723594403 513.9263667298753
